ncols        150
nrows        100
xllcorner    86.874583333333
yllcorner    27.917083333333
cellsize     0.000833333333
NODATA_value -32768
 5372 5403 5424 5431 5422 5406 5387 5366 5345 5328 5304 5289 5276 5262 5255 5247 5236 5218 5208 5190 5179 5176 5174 5165 5158 5149 5141 5103 5050 5006 4968 4940 4923 4914 4898 4862 4831 4801 4789 4773 4755 4740 4729 4713 4708 4705 4704 4713 4742 4783 4809 4847 4868 4906 4939 4974 4989 5026 5035 5038 5035 5028 5026 5027 5032 5044 5057 5069 5078 5093 5100 5106 5111 5117 5122 5118 5101 5077 5053 5027 5009 4988 4982 4975 4957 4939 4947 4975 5009 5036 5063 5095 5129 5165 5196 5225 5239 5245 5243 5246 5251 5258 5261 5258 5247 5232 5209 5201 5204 5213 5206 5208 5223 5252 5272 5281 5298 5300 5297 5298 5297 5301 5296 5305 5320 5335 5354 5373 5401 5426 5444 5465 5511 5553 5588 5583 5557 5529 5483 5449 5410 5389 5387 5374 5363 5341 5316 5295 5263 5234
 5391 5420 5437 5435 5424 5407 5390 5374 5354 5344 5322 5307 5299 5287 5280 5268 5252 5239 5230 5216 5208 5201 5195 5187 5176 5161 5141 5085 5033 4993 4971 4943 4929 4914 4890 4860 4826 4811 4792 4783 4762 4745 4725 4709 4708 4701 4705 4711 4740 4766 4817 4801 4872 4909 4928 4958 4992 5013 5011 5003 4996 4996 4996 5001 5015 5027 5043 5051 5062 5073 5071 5078 5079 5083 5091 5087 5079 5061 5039 5018 4995 4977 4957 4948 4931 4931 4950 4977 5011 5040 5059 5102 5125 5164 5193 5212 5216 5216 5211 5208 5211 5218 5221 5219 5211 5199 5187 5174 5177 5179 5181 5182 5202 5221 5238 5241 5241 5249 5252 5255 5254 5259 5263 5274 5288 5301 5322 5339 5360 5388 5413 5451 5489 5534 5570 5576 5549 5484 5462 5443 5412 5384 5368 5362 5346 5324 5300 5272 5242 5219
 5403 5422 5429 5425 5418 5404 5391 5374 5362 5349 5338 5327 5315 5308 5299 5282 5269 5264 5252 5245 5239 5228 5218 5204 5195 5181 5140 5090 5041 5004 4964 4941 4925 4913 4884 4853 4826 4816 4799 4782 4763 4733 4716 4707 4705 4705 4705 4710 4745 4798 4833 4862 4873 4922 4943 4969 4980 4986 4989 4972 4968 4963 4966 4979 4995 5021 5030 5044 5051 5049 5057 5050 5053 5054 5057 5056 5049 5028 5011 4993 4977 4959 4942 4917 4916 4932 4949 4977 5017 5048 5074 5113 5127 5152 5171 5186 5189 5185 5182 5185 5180 5184 5189 5187 5176 5172 5161 5150 5144 5156 5156 5168 5185 5195 5195 5200 5204 5205 5204 5211 5214 5224 5235 5249 5265 5282 5303 5327 5355 5386 5423 5459 5493 5533 5576 5578 5544 5484 5458 5437 5405 5384 5372 5355 5330 5302 5279 5250 5218 5198
 5400 5406 5406 5402 5398 5388 5379 5370 5362 5353 5345 5334 5326 5318 5308 5300 5288 5284 5270 5264 5259 5246 5236 5223 5209 5182 5156 5101 5040 5000 4960 4943 4929 4913 4886 4859 4854 4839 4804 4794 4785 4739 4706 4705 4709 4708 4713 4711 4744 4788 4835 4876 4914 4940 4949 4948 4955 4960 4954 4945 4936 4929 4932 4961 4983 4998 5024 5029 5039 5044 5041 5038 5028 5025 5022 5025 5014 4996 4981 4963 4948 4928 4910 4901 4910 4929 4968 4989 5025 5062 5097 5105 5120 5130 5135 5145 5144 5152 5156 5169 5159 5161 5160 5161 5163 5147 5141 5130 5127 5136 5140 5156 5165 5168 5167 5169 5164 5165 5168 5180 5199 5213 5229 5248 5270 5302 5324 5352 5382 5413 5439 5474 5523 5556 5581 5566 5499 5487 5460 5437 5409 5381 5370 5358 5332 5298 5267 5239 5212 5190
 5394 5394 5387 5381 5376 5371 5362 5357 5352 5345 5342 5338 5335 5328 5321 5310 5303 5295 5287 5283 5274 5263 5244 5229 5208 5176 5130 5092 5045 5006 4979 4954 4928 4905 4891 4880 4863 4862 4846 4828 4808 4739 4707 4707 4709 4714 4714 4711 4737 4779 4835 4880 4895 4916 4927 4920 4922 4931 4925 4907 4896 4898 4909 4940 4973 4995 5002 5011 5024 5026 5018 5015 4999 4992 4998 4997 4986 4969 4950 4935 4917 4897 4889 4896 4912 4946 4980 5012 5043 5074 5091 5109 5111 5110 5108 5112 5117 5128 5140 5146 5140 5136 5138 5141 5137 5126 5118 5122 5117 5125 5123 5138 5140 5135 5128 5131 5142 5155 5173 5192 5205 5229 5242 5265 5302 5327 5355 5379 5417 5447 5478 5504 5537 5573 5573 5552 5517 5485 5449 5427 5396 5374 5361 5342 5320 5293 5270 5241 5212 5192
 5388 5382 5377 5369 5359 5353 5343 5339 5334 5331 5326 5326 5333 5327 5324 5321 5314 5304 5297 5295 5289 5273 5247 5226 5206 5161 5112 5070 5034 5008 4980 4950 4921 4895 4888 4875 4863 4851 4832 4819 4790 4739 4710 4711 4710 4711 4713 4714 4718 4748 4804 4853 4861 4868 4877 4882 4881 4880 4881 4876 4869 4872 4891 4915 4941 4969 4984 4998 5004 5009 4994 4984 4964 4962 4963 4956 4940 4931 4919 4903 4879 4875 4885 4900 4934 4968 4993 5031 5055 5085 5107 5113 5098 5090 5082 5091 5099 5107 5118 5121 5117 5110 5109 5115 5118 5110 5108 5100 5105 5107 5112 5116 5104 5106 5124 5146 5172 5185 5205 5223 5247 5257 5276 5299 5324 5360 5386 5419 5447 5487 5528 5547 5567 5577 5561 5541 5505 5474 5440 5414 5392 5362 5345 5322 5304 5281 5262 5240 5209 5188
 5375 5367 5360 5348 5336 5325 5319 5311 5306 5303 5300 5305 5316 5317 5322 5322 5315 5311 5309 5302 5294 5278 5260 5235 5196 5142 5099 5057 5025 5001 4968 4943 4908 4889 4873 4859 4845 4828 4821 4802 4773 4739 4710 4713 4713 4712 4715 4716 4717 4726 4764 4798 4822 4820 4831 4838 4848 4852 4854 4852 4849 4848 4869 4889 4907 4930 4943 4967 4983 4986 4973 4953 4937 4932 4926 4922 4913 4897 4887 4870 4866 4870 4888 4923 4953 4982 5018 5046 5063 5090 5101 5094 5078 5071 5077 5067 5073 5093 5099 5101 5098 5093 5085 5095 5094 5091 5091 5087 5093 5100 5088 5084 5092 5120 5141 5175 5198 5214 5228 5246 5276 5302 5314 5333 5363 5393 5426 5456 5490 5512 5539 5551 5556 5554 5543 5519 5493 5462 5430 5399 5374 5344 5316 5301 5287 5263 5241 5229 5200 5175
 5370 5353 5339 5324 5310 5295 5287 5278 5273 5270 5269 5275 5286 5293 5302 5314 5321 5323 5320 5312 5307 5286 5265 5234 5194 5150 5114 5067 5035 5002 4958 4929 4904 4883 4863 4852 4841 4823 4806 4789 4768 4732 4709 4714 4713 4714 4715 4718 4722 4723 4722 4746 4759 4766 4778 4790 4805 4816 4824 4825 4824 4823 4853 4866 4882 4897 4914 4927 4954 4952 4944 4924 4910 4903 4905 4897 4883 4875 4856 4850 4860 4876 4899 4936 4968 5006 5032 5056 5064 5082 5079 5067 5052 5052 5063 5049 5060 5075 5081 5081 5074 5077 5065 5074 5073 5072 5077 5075 5079 5074 5061 5074 5101 5129 5163 5193 5220 5231 5243 5274 5312 5335 5360 5376 5402 5426 5454 5482 5498 5513 5522 5530 5530 5532 5524 5507 5478 5447 5416 5384 5353 5325 5304 5278 5263 5241 5218 5204 5184 5158
 5370 5349 5330 5313 5291 5269 5259 5247 5244 5238 5242 5248 5255 5268 5280 5293 5307 5313 5318 5317 5315 5300 5284 5251 5213 5176 5142 5098 5057 5018 4971 4939 4909 4873 4860 4846 4828 4818 4805 4781 4759 4731 4711 4712 4715 4717 4718 4720 4719 4720 4720 4727 4733 4731 4739 4747 4767 4778 4789 4797 4801 4807 4826 4843 4856 4869 4887 4898 4925 4913 4905 4896 4886 4876 4876 4866 4856 4842 4840 4851 4868 4884 4914 4945 4979 5000 5012 5049 5062 5059 5048 5040 5026 5028 5030 5026 5045 5053 5061 5054 5052 5053 5049 5048 5055 5061 5059 5062 5065 5057 5055 5086 5118 5136 5166 5207 5235 5244 5272 5310 5343 5365 5384 5407 5429 5442 5460 5473 5481 5489 5491 5498 5506 5509 5508 5496 5471 5439 5406 5372 5340 5313 5282 5256 5231 5211 5191 5178 5163 5145
 5377 5356 5341 5318 5290 5264 5238 5220 5209 5210 5206 5218 5223 5236 5257 5270 5286 5297 5309 5314 5312 5305 5291 5267 5230 5196 5171 5123 5081 5026 4988 4946 4927 4883 4877 4854 4830 4821 4799 4780 4757 4726 4713 4715 4717 4720 4718 4720 4722 4721 4721 4724 4723 4733 4735 4734 4739 4750 4760 4769 4779 4789 4806 4822 4833 4847 4855 4880 4886 4886 4877 4865 4860 4845 4840 4828 4828 4831 4838 4858 4881 4906 4934 4955 4951 4990 5017 5038 5034 5027 5019 5007 4999 5002 5001 5010 5024 5028 5032 5031 5030 5026 5035 5035 5040 5045 5043 5047 5046 5035 5050 5088 5117 5146 5182 5210 5241 5255 5294 5337 5365 5385 5396 5414 5425 5427 5436 5444 5453 5459 5467 5471 5486 5493 5498 5494 5473 5442 5404 5368 5334 5304 5274 5249 5222 5200 5176 5159 5143 5121
 5388 5367 5351 5331 5308 5276 5251 5218 5198 5180 5177 5177 5189 5201 5219 5242 5258 5272 5286 5298 5308 5304 5291 5274 5240 5210 5180 5144 5089 5040 5007 4962 4937 4909 4907 4867 4845 4815 4808 4791 4770 4729 4714 4712 4715 4716 4716 4720 4727 4728 4730 4721 4728 4727 4733 4732 4736 4739 4741 4748 4756 4769 4776 4799 4807 4814 4845 4859 4865 4857 4846 4833 4827 4825 4813 4813 4821 4840 4856 4876 4903 4927 4955 4975 4971 4998 5009 5011 5008 4997 4988 4980 4980 4977 4982 4996 4998 4999 4997 5004 5015 5012 5016 5020 5021 5023 5029 5026 5018 5028 5051 5084 5117 5138 5178 5218 5250 5279 5316 5338 5367 5375 5388 5398 5407 5407 5406 5414 5418 5423 5432 5440 5461 5474 5491 5493 5470 5436 5399 5363 5326 5299 5278 5251 5235 5231 5211 5192 5173 5150
 5396 5377 5361 5337 5314 5289 5273 5249 5206 5183 5154 5152 5158 5170 5185 5200 5213 5232 5251 5265 5277 5288 5285 5272 5248 5212 5183 5143 5094 5052 5015 4980 4956 4932 4906 4878 4846 4826 4810 4796 4766 4734 4714 4716 4717 4721 4720 4722 4730 4747 4753 4746 4748 4740 4734 4731 4734 4733 4739 4741 4746 4748 4759 4776 4787 4804 4813 4829 4828 4826 4813 4811 4803 4804 4811 4832 4857 4865 4878 4904 4929 4959 4976 4993 4999 4997 4996 4984 4977 4972 4965 4966 4956 4950 4959 4967 4972 4974 4985 4990 4984 4991 4998 5007 5000 5000 5000 5004 5011 5026 5057 5094 5115 5144 5181 5217 5246 5277 5310 5330 5355 5357 5365 5367 5366 5371 5374 5372 5379 5388 5398 5413 5436 5459 5479 5488 5470 5436 5400 5361 5331 5302 5287 5274 5275 5264 5246 5224 5203 5163
 5400 5381 5365 5343 5318 5293 5269 5245 5225 5201 5168 5134 5115 5127 5143 5158 5175 5189 5207 5223 5241 5242 5250 5244 5226 5194 5167 5141 5107 5069 5039 5001 4966 4937 4909 4884 4845 4824 4803 4788 4757 4733 4717 4720 4718 4721 4723 4728 4743 4756 4763 4763 4759 4762 4754 4740 4740 4737 4737 4743 4745 4749 4748 4759 4772 4790 4800 4806 4799 4800 4788 4788 4795 4816 4849 4872 4889 4899 4912 4926 4956 4974 4986 -32768 -32768 4993 4978 4963 4958 4953 4948 4946 4937 4932 4940 4945 4952 4951 4958 4970 4975 4973 4975 4984 4974 4980 4983 4995 5011 5032 5066 5088 5115 5140 5175 5203 5230 5258 5287 5309 5320 5337 5335 5334 5329 5331 5330 5338 5343 5352 5373 5395 5422 5449 5469 5481 5468 5436 5406 5371 5342 5318 5308 5310 5311 5292 5272 5248 5219 5204
 5396 5379 5360 5339 5316 5292 5274 5250 5224 5204 5174 5131 5099 5085 5102 5115 5130 5148 5167 5178 5195 5210 5209 5212 5198 5173 5145 5131 5120 5080 5045 5014 4983 4956 4922 4883 4859 4821 4795 4768 4745 4723 4717 4720 4718 4722 4727 4745 4755 4768 4779 4783 4767 4776 4773 4758 4742 4742 4744 4743 4745 4746 4752 4756 4759 4769 4782 4783 4775 4777 4776 4787 4815 4841 4873 4898 4916 4937 4935 4955 4976 4980 4993 -32768 4992 4977 4956 4941 4927 4923 4927 4925 4919 4920 4917 4915 4919 4920 4927 4933 4949 4948 4952 4954 4959 4972 4992 5015 5030 5036 5056 5077 5099 5132 5171 5195 5214 5237 5256 5275 5294 5299 5307 5297 5291 5290 5289 5298 5304 5328 5354 5391 5420 5453 5478 5484 5477 5452 5420 5393 5358 5340 5344 5339 5330 5311 5296 5274 5253 5236
 5381 5364 5349 5328 5305 5289 5271 5249 5226 5208 5173 5135 5091 5061 5060 5081 5093 5104 5121 5131 5147 5158 5168 5173 5161 5141 5111 5095 5085 5066 5045 5017 4983 4960 4930 4902 4872 4833 4809 4763 4735 4722 4717 4720 4720 4724 4738 4770 4783 4800 4802 4801 4800 4795 4796 4781 4755 4754 4744 4743 4747 4747 4749 4754 4754 4763 4767 4767 4768 4776 4783 4817 4831 4853 4880 4913 4937 4946 4955 4973 4985 5005 5005 5001 4989 4954 4924 4908 4898 4894 4897 4897 4893 4895 4899 4901 4904 4906 4910 4912 4920 4929 4939 4943 4955 4974 5001 5005 5021 5026 5043 5066 5099 5121 5158 5187 5205 5217 5228 5234 5248 5257 5258 5253 5249 5248 5258 5267 5289 5319 5356 5393 5439 5464 5485 5498 5490 5474 5444 5421 5395 5368 5364 5354 5344 5331 5311 5288 5275 5254
 5357 5341 5322 5308 5288 5274 5263 5247 5219 5191 5152 5118 5091 5055 5029 5036 5049 5063 5070 5087 5102 5112 5119 5122 5120 5105 5083 5046 5027 5024 5025 5007 4981 4960 4942 4931 4884 4853 4812 4763 4727 4722 4719 4720 4727 4745 4775 4815 4832 4835 4833 4818 4815 4817 4809 4798 4785 4767 4752 4750 4748 4749 4752 4753 4756 4755 4758 4764 4777 4788 4806 4831 4844 4869 4889 4921 4947 4968 4983 4995 4969 4984 4986 4969 4947 4918 4899 4882 4882 4888 4892 4898 4905 4913 4931 4933 4935 4932 4932 4921 4925 4927 4934 4933 4938 4951 4962 4971 4988 5002 5022 5045 5072 5105 5135 5167 5181 5187 5195 5205 5212 5218 5213 5211 5209 5217 5237 5255 5292 5340 5374 5418 5452 5480 5497 5508 5504 5491 5470 5442 5427 5395 5380 5362 5353 5342 5323 5302 5280 5261
 5341 5308 5292 5273 5251 5242 5239 5231 5203 5175 5145 5111 5078 5051 5019 5005 5003 5022 5029 5038 5055 5068 5074 5078 5075 5064 5034 5005 4985 4977 4980 4970 4954 4939 4923 4920 4894 4862 4797 4753 4723 4725 4722 4722 4722 4755 4812 4842 4874 4880 4874 4867 4855 4840 4831 4815 4809 4795 4773 4759 4757 4753 4752 4754 4756 4758 4762 4767 4787 4794 4818 4835 4862 4889 4911 4924 4952 4974 4983 4990 4978 4977 4967 4941 4912 4893 4881 4875 4903 4930 4931 4935 4940 4946 4965 4979 4986 4987 4983 4980 4976 4980 4976 4969 4970 4964 4961 4962 4959 4973 4989 5008 5035 5070 5102 5137 5158 5163 5171 5172 5173 5178 5164 5177 5190 5215 5239 5268 5308 5341 5388 5430 5464 5491 5509 5521 5516 5500 5478 5458 5431 5405 5381 5368 5353 5341 5321 5296 5274 5246
 5333 5292 5259 5236 5206 5197 5199 5188 5170 5156 5137 5113 5082 5054 5030 5004 4980 4976 4984 4999 5015 5026 5028 5036 5023 5017 4999 4967 4955 4943 4938 4933 4923 4916 4911 4900 4886 4847 4785 4736 4725 4722 4724 4719 4723 4776 4817 4873 4907 4922 4921 4913 4899 4869 4855 4854 4852 4836 4813 4792 4771 4764 4754 4755 4758 4759 4764 4766 4773 4802 4823 4848 4866 4891 4915 4947 4957 4980 4972 4972 4972 4958 4937 4905 4885 4873 4875 4888 4917 4937 4944 4949 4956 4964 4976 4996 5006 5020 5027 5027 5021 5027 5019 5007 5010 5013 5014 5008 4994 4977 4973 4981 5001 5029 5057 5090 5122 5135 5138 5135 5126 5120 5142 5167 5200 5229 5259 5291 5332 5371 5412 5449 5484 5506 5522 5531 5527 5515 5494 5465 5440 5414 5378 5359 5340 5324 5300 5275 5249 5230
 5330 5294 5236 5208 5172 5154 5141 5136 5126 5119 5118 5109 5085 5065 5046 5019 4991 4961 4943 4946 4959 4977 5001 5013 4988 4978 4958 4940 4923 4915 4903 4899 4902 4900 4904 4901 4864 4840 4779 4738 4723 4726 4726 4722 4736 4781 4849 4891 4915 4948 4954 4945 4919 4907 4894 4890 4894 4879 4852 4826 4807 4802 4785 4765 4765 4764 4766 4770 4774 4803 4826 4836 4855 4878 4900 4932 4957 4939 4959 4960 4953 4926 4902 4883 4867 4867 4874 4908 4926 4936 4949 4957 4959 4979 4988 5003 5016 5034 5042 5055 5058 5057 5053 5041 5045 5051 5055 5045 5027 5018 5015 5003 4985 4992 5017 5048 5080 5105 5102 5097 5092 5118 5153 5194 5233 5261 5288 5324 5357 5394 5431 5463 5496 5509 5526 5530 5529 5516 5495 5472 5446 5409 5379 5352 5323 5299 5267 5247 5226 5205
 5321 5285 5237 5214 5160 5128 5110 5090 5084 5082 5096 5101 5093 5075 5064 5042 5009 4985 4949 4915 4917 4927 4968 4982 4967 4953 4927 4924 4905 4894 4883 4876 4876 4893 4898 4893 4874 4840 4784 4730 4729 4722 4725 4726 4747 4816 4857 4921 4976 4984 4976 4969 4948 4931 4921 4928 4935 4922 4888 4872 4845 4838 4813 4782 4767 4768 4770 4770 4772 4787 4799 4817 4832 4854 4876 4910 4936 4946 4947 4937 4918 4899 4879 4863 4862 4867 4888 4907 4921 4939 4944 4946 4961 4983 4997 5006 5027 5056 5063 5067 5071 5078 5078 5073 5071 5071 5074 5059 5058 5062 5066 5049 5030 5010 5010 5010 5042 5060 5064 5062 5088 5136 5182 5214 5254 5279 5312 5342 5378 5417 5453 5471 5492 5501 5513 5519 5522 5514 5493 5469 5447 5415 5382 5351 5328 5296 5257 5240 5213 5188
 5301 5270 5237 5203 5167 5121 5098 5073 5056 5049 5063 5085 5085 5088 5071 5055 5030 5004 4963 4930 4894 4885 4915 4937 4935 4909 4898 4905 4888 4880 4865 4855 4861 4868 4876 4892 4864 4832 4756 4734 4730 4730 4728 4729 4764 4833 4885 4942 4996 5019 5013 4992 4976 4965 4966 4970 4976 4965 4940 4921 4888 4876 4843 4813 4780 4771 4774 4773 4778 4780 4785 4794 4810 4831 4852 4878 4894 4907 4905 4897 4881 4872 4859 4855 4858 4873 4891 4914 4932 4937 4955 4958 4978 4991 5001 5020 5041 5067 5092 5094 5102 5112 5112 5106 5102 5105 5102 5087 5092 5098 5101 5084 5075 5050 5038 5040 5029 5029 5036 5062 5105 5144 5183 5221 5258 5286 5318 5348 5384 5420 5445 5463 5476 5484 5493 5501 5506 5506 5493 5473 5446 5420 5395 5366 5331 5311 5281 5258 5223 5199
 5298 5252 5222 5190 5159 5123 5095 5067 5041 5027 5028 5055 5078 5081 5069 5053 5036 5012 4975 4943 4906 4867 4853 4864 4870 4869 4860 4870 4880 4869 4849 4837 4833 4850 4863 4869 4851 4810 4757 4734 4731 4730 4729 4731 4767 4841 4895 4947 5009 5043 5042 5020 5006 4999 5005 5010 5009 4997 4977 4955 4945 4920 4886 4856 4815 4778 4778 4779 4778 4785 4782 4786 4797 4814 4833 4860 4876 4873 4868 4868 4858 4853 4847 4852 4855 4878 4900 4910 4937 4952 4974 4969 4980 4995 5009 5029 5053 5083 5111 5123 5121 5133 5135 5132 5133 5133 5123 5121 5126 5134 5127 5113 5099 5084 5078 5064 5063 5054 5035 5047 5085 5127 5166 5205 5242 5271 5308 5349 5379 5414 5433 5446 5459 5460 5471 5482 5494 5501 5494 5476 5454 5427 5398 5372 5346 5319 5288 5259 5231 5222
 5293 5255 5221 5184 5158 5127 5100 5084 5059 5019 4998 4997 5017 5047 5058 5042 5030 5006 4983 4945 4913 4878 4845 4828 4829 4831 4845 4860 4871 4846 4834 4818 4815 4825 4836 4842 4831 4789 4746 4732 4728 4728 4732 4746 4804 4861 4923 4963 5021 5060 5068 5052 5032 5036 5034 5043 5039 5028 5013 4998 4978 4955 4930 4896 4851 4803 4782 4782 4786 4786 4785 4788 4793 4799 4811 4834 4853 4853 4846 4842 4843 4842 4843 4845 4857 4879 4895 4921 4944 4962 4975 4986 4998 5012 5034 5041 5063 5099 5124 5149 5160 5162 5164 5162 5160 5162 5160 5149 5154 5160 5154 5146 5130 5123 5110 5101 5091 5088 5069 5046 5064 5107 5140 5174 5213 5256 5288 5328 5363 5389 5413 5427 5436 5445 5448 5460 5478 5490 5494 5480 5460 5432 5407 5381 5356 5331 5305 5279 5261 5244
 5280 5243 5208 5187 5153 5136 5104 5087 5058 5022 4995 4966 4965 4991 5005 4999 5001 4993 4976 4949 4923 4888 4853 4828 4810 4814 4813 4819 4822 4809 4808 4802 4799 4804 4809 4806 4792 4763 4740 4732 4730 4728 4730 4747 4816 4866 4917 4968 5018 5053 5070 5075 5066 5072 5072 5079 5071 5066 5054 5040 5020 4997 4965 4934 4891 4846 4807 4784 4780 4784 4790 4793 4795 4800 4803 4810 4822 4825 4826 4830 4831 4836 4840 4840 4857 4876 4896 4924 4953 4976 4996 5008 5009 5027 5047 5052 5084 5108 5134 5158 5170 5176 5176 5183 5182 5181 5178 5174 5181 5190 5191 5178 5163 5156 5157 5133 5118 5118 5099 5069 5057 5084 5131 5168 5209 5245 5278 5317 5342 5364 5389 5402 5413 5419 5426 5443 5459 5485 5495 5490 5470 5449 5426 5394 5372 5347 5326 5302 5281 5262
 5257 5230 5204 5172 5147 5121 5097 5079 5051 5015 4990 4964 4936 4940 4952 4950 4950 4943 4944 4925 4903 4887 4855 4819 4808 4803 4803 4799 4794 4790 4784 4780 4783 4781 4774 4768 4758 4746 4739 4735 4735 4729 4732 4746 4799 4861 4894 4944 4984 5014 5066 5087 5105 5104 5109 5104 5100 5099 5083 5071 5047 5028 4994 4964 4927 4883 4848 4800 4784 4789 4793 4796 4800 4806 4806 4813 4810 4813 4818 4822 4824 4829 4831 4836 4854 4875 4904 4921 4960 4985 4991 5004 5017 5041 5049 5070 5088 5100 5126 5148 5157 5168 5177 5185 5188 5189 5190 5188 5193 5207 5213 5206 5188 5179 5175 5165 5152 5154 5123 5103 5076 5069 5119 5147 5193 5231 5265 5299 5323 5350 5369 5379 5387 5395 5412 5429 5445 5474 5491 5494 5478 5454 5427 5409 5388 5359 5347 5326 5299 5276
 5233 5215 5186 5161 5133 5107 5083 5057 5037 5010 4987 4956 4928 4910 4908 4909 4907 4902 4889 4877 4864 4845 4831 4810 4798 4789 4782 4772 4774 4770 4766 4761 4763 4757 4756 4750 4744 4739 4735 4735 4735 4734 4739 4767 4799 4824 4865 4914 4958 5000 5040 5086 5124 5131 5138 5134 5132 5120 5115 5096 5079 5056 5035 5003 4967 4922 4882 4829 4803 4793 4794 4796 4802 4799 4802 4817 4816 4823 4822 4821 4832 4829 4828 4836 4854 4874 4901 4919 4956 4973 4982 5002 5017 5025 5040 5058 5074 5098 5116 5126 5138 5148 5162 5179 5193 5201 5204 5207 5217 5226 5232 5238 5231 5223 5223 5212 5190 5174 5159 5135 5104 5077 5100 5139 5177 5209 5236 5265 5298 5323 5342 5352 5354 5375 5400 5411 5430 5455 5479 5493 5488 5468 5450 5428 5409 5383 5356 5337 5312 5283
 5211 5197 5178 5152 5126 5100 5073 5046 5025 5010 4983 4953 4920 4901 4890 4886 4872 4866 4856 4845 4837 4825 4814 4794 4783 4779 4777 4778 4778 4779 4772 4772 4767 4761 4753 4753 4748 4738 4738 4736 4736 4738 4762 4774 4791 4819 4843 4885 4931 4983 5024 5079 5116 5150 5159 5159 5154 5146 5136 5125 5109 5091 5066 5030 4997 4957 4920 4874 4826 4796 4794 4797 4800 4804 4808 4811 4817 4822 4824 4821 4826 4829 4832 4844 4856 4865 4894 4921 4946 4959 4971 4984 5003 5011 5021 5037 5069 5083 5099 5113 5123 5128 5153 5165 5188 5208 5215 5223 5227 5235 5242 5249 5249 5254 5248 5242 5223 5206 5184 5158 5122 5093 5091 5118 5157 5190 5217 5241 5265 5287 5306 5308 5328 5361 5386 5402 5416 5441 5465 5482 5486 5479 5458 5445 5418 5394 5360 5347 5321 5292
 5191 5167 5151 5125 5103 5077 5056 5031 5002 4987 4974 4948 4925 4902 4885 4876 4869 4858 4852 4840 4831 4826 4816 4810 4807 4801 4811 4804 4808 4801 4790 4786 4783 4774 4763 4759 4754 4745 4739 4736 4744 4748 4789 4791 4796 4816 4838 4874 4926 4984 5019 5083 5120 5165 5173 5182 5170 5166 5156 5147 5130 5113 5087 5061 5026 4988 4943 4911 4878 4834 4800 4801 4798 4805 4808 4811 4814 4816 4819 4820 4823 4825 4830 4841 4854 4869 4882 4903 4922 4941 4952 4968 4984 4997 5007 5025 5047 5066 5078 5084 5102 5124 5138 5157 5176 5203 5216 5220 5230 5237 5246 5251 5253 5258 5263 5261 5246 5230 5212 5185 5150 5129 5101 5106 5135 5166 5184 5214 5240 5261 5265 5282 5312 5347 5376 5391 5402 5420 5443 5459 5468 5469 5463 5454 5432 5403 5368 5358 5327 5298
 5178 5154 5131 5108 5076 5053 5033 5004 4982 4959 4943 4927 4909 4893 4885 4874 4868 4855 4845 4842 4835 4831 4828 4831 4840 4851 4855 4856 4850 4841 4838 4820 4816 4801 4793 4778 4756 4750 4741 4741 4737 4748 4782 4787 4801 4822 4840 4886 4936 5003 5035 5078 5135 5167 5187 5194 5195 5181 5181 5171 5158 5134 5114 5085 5059 5023 4980 4953 4906 4869 4833 4806 4804 4807 4808 4813 4814 4817 4819 4821 4825 4828 4837 4841 4848 4864 4869 4888 4909 4922 4938 4948 4967 4983 4994 5007 5020 5033 5045 5068 5094 5109 5135 5147 5160 5189 5210 5219 5233 5244 5254 5258 5264 5270 5274 5272 5269 5249 5233 5199 5170 5150 5125 5108 5111 5133 5159 5194 5213 5225 5232 5259 5298 5321 5350 5369 5385 5393 5413 5429 5444 5448 5451 5449 5437 5420 5384 5364 5331 5314
 5194 5176 5148 5124 5101 5072 5048 5008 4983 4961 4943 4928 4913 4898 4880 4875 4867 4856 4855 4847 4847 4854 4855 4873 4880 4890 4900 4905 4898 4898 4877 4859 4842 4842 4822 4802 4770 4758 4738 4739 4740 4742 4755 4782 4800 4820 4868 4916 4960 5013 5053 5102 5154 5180 5202 5208 5208 5209 5195 5188 5173 5160 5137 5111 5079 5043 5007 4954 4919 4894 4867 4829 4808 4809 4810 4816 4813 4817 4819 4820 4827 4829 4837 4846 4847 4862 4869 4882 4898 4910 4926 4939 4950 4965 4981 4991 5006 5011 5028 5046 5071 5089 5108 5132 5144 5173 5189 5214 5229 5243 5257 5262 5268 5273 5276 5280 5279 5264 5244 5213 5195 5181 5161 5144 5128 5124 5128 5156 5181 5197 5217 5243 5268 5291 5314 5340 5360 5372 5383 5398 5408 5414 5420 5430 5429 5415 5387 5366 5344 5330
 5213 5193 5174 5154 5130 5105 5076 5040 4997 4969 4957 4942 4935 4926 4910 4896 4884 4880 4882 4869 4873 4884 4892 4908 4919 4932 4950 4958 4951 4936 4915 4904 4899 4879 4870 4832 4809 4772 4743 4740 4741 4744 4744 4767 4802 4841 4875 4930 4976 5022 5074 5120 5155 5192 5210 5214 5220 5215 5214 5202 5184 5169 5152 5131 5096 5050 5007 4976 4949 4936 4909 4879 4821 4812 4812 4812 4819 4818 4822 4826 4827 4830 4837 4848 4853 4863 4869 4881 4893 4904 4917 4929 4939 4957 4965 4975 4990 5004 5016 5038 5052 5072 5094 5110 5132 5159 5171 5191 5217 5234 5250 5261 5270 5277 5286 5288 5287 5274 5259 5228 5217 5201 5194 5181 5167 5158 5141 5136 5153 5170 5191 5209 5228 5255 5279 5309 5331 5347 5355 5361 5375 5387 5393 5400 5404 5396 5378 5365 5358 5350
 5235 5210 5185 5157 5126 5102 5069 5035 5009 4984 4985 4976 4958 4952 4940 4931 4920 4917 4900 4898 4911 4921 4937 4956 4967 4981 4994 5001 4987 4970 4956 4943 4938 4917 4894 4865 4839 4789 4747 4739 4743 4744 4747 4768 4808 4853 4895 4943 4997 5045 5088 5128 5157 5182 5198 5206 5217 5224 5226 5217 5202 5180 5160 5134 5109 5065 5026 5011 5000 4982 4950 4913 4872 4834 4818 4819 4823 4822 4825 4829 4829 4830 4840 4853 4850 4861 4868 4880 4886 4898 4909 4921 4933 4945 4957 4963 4984 4994 5004 5020 5040 5062 5077 5098 5120 5139 5161 5180 5204 5226 5245 5257 5265 5275 5282 5292 5293 5290 5273 5261 5244 5230 5223 5212 5198 5179 5162 5163 5159 5154 5162 5176 5197 5215 5248 5274 5294 5317 5331 5336 5342 5354 5366 5373 5377 5374 5364 5355 5355 5365
 5249 5222 5188 5154 5132 5099 5081 5047 5044 5031 5016 5004 4995 4985 4979 4962 4952 4946 4934 4925 4941 4965 4975 4992 5006 5017 5027 5028 5009 4991 4991 4989 4971 4964 4934 4898 4867 4821 4751 4739 4743 4742 4752 4770 4826 4865 4909 4952 4999 5041 5076 5102 5126 5144 5158 5174 5193 5202 5216 5217 5204 5191 5169 5150 5121 5102 5068 5052 5038 5019 4982 4950 4922 4872 4823 4818 4822 4826 4828 4829 4831 4833 4839 4848 4855 4860 4869 4877 4883 4892 4905 4917 4926 4937 4949 4959 4974 4988 4993 5014 5031 5046 5060 5079 5101 5130 5151 5168 5194 5215 5235 5248 5255 5261 5270 5282 5290 5295 5292 5282 5269 5254 5244 5224 5218 5199 5196 5197 5196 5192 5194 5194 5192 5195 5211 5236 5265 5282 5301 5308 5313 5321 5331 5340 5345 5346 5342 5342 5345 5357
 5261 5231 5200 5163 5134 5108 5083 5066 5058 5064 5046 5034 5027 5021 5016 5001 4992 4985 4967 4952 4978 4997 5010 5024 5039 5043 5054 5050 5048 5037 5023 5018 5005 4985 4963 4917 4878 4830 4759 4742 4745 4751 4750 4782 4825 4866 4915 4950 4988 5021 5047 5060 5074 5089 5110 5126 5145 5163 5187 5202 5207 5195 5180 5159 5145 5128 5107 5095 5072 5046 5019 4985 4947 4903 4855 4836 4824 4828 4830 4834 4835 4836 4841 4850 4856 4865 4870 4878 4886 4892 4903 4910 4923 4930 4945 4957 4968 4982 4988 5003 5018 5033 5044 5076 5099 5130 5145 5166 5178 5194 5209 5231 5241 5250 5256 5266 5276 5284 5289 5294 5295 5286 5276 5260 5247 5234 5231 5239 5236 5233 5226 5231 5223 5225 5216 5222 5231 5253 5266 5275 5283 5295 5302 5308 5316 5318 5325 5327 5336 5353
 5265 5241 5207 5172 5139 5115 5099 5095 5088 5085 5083 5077 5066 5059 5052 5039 5030 5016 4999 4990 5008 5035 5041 5053 5063 5069 5078 5083 5064 5057 5048 5035 5024 5003 4978 4944 4865 4827 4765 4744 4746 4750 4769 4794 4826 4856 4894 4924 4944 4977 4989 5004 5020 5038 5055 5077 5097 5123 5150 5165 5181 5189 5186 5175 5161 5144 5138 5120 5101 5080 5046 5009 4975 4925 4897 4870 4846 4833 4830 4833 4835 4840 4843 4849 4858 4861 4872 4877 4883 4891 4902 4906 4915 4928 4943 4955 4961 4979 4985 4995 5009 5013 5039 5061 5094 5114 5134 5144 5162 5175 5186 5200 5216 5232 5240 5248 5260 5267 5275 5282 5296 5304 5308 5297 5282 5267 5270 5281 5278 5273 5260 5255 5248 5244 5240 5241 5248 5248 5249 5254 5264 5267 5275 5280 5292 5300 5312 5319 5328 5350
 5261 5231 5200 5162 5145 5129 5122 5123 5123 5112 5111 5104 5094 5089 5079 5067 5066 5047 5034 5032 5042 5064 5072 5080 5094 5099 5105 5099 5089 5078 5068 5052 5037 5013 4979 4936 4868 4839 4764 4747 4745 4754 4767 4780 4791 4819 4847 4871 4898 4920 4932 4952 4967 4990 5006 5026 5046 5080 5104 5129 5153 5173 5185 5187 5179 5173 5160 5151 5125 5104 5075 5041 5000 4962 4921 4906 4879 4857 4837 4836 4839 4839 4845 4848 4856 4864 4873 4877 4882 4891 4901 4907 4914 4922 4937 4950 4957 4970 4979 4991 5003 5009 5025 5045 5078 5097 5115 5127 5146 5162 5169 5181 5196 5211 5214 5233 5239 5248 5256 5269 5282 5297 5308 5311 5313 5309 5313 5314 5315 5304 5293 5286 5274 5268 5268 5269 5266 5268 5283 5294 5297 5297 5294 5294 5291 5292 5301 5308 5321 5339
 5249 5223 5194 5175 5158 5150 5143 5144 5144 5136 5127 5128 5119 5112 5103 5098 5088 5072 5067 5062 5078 5091 5102 5111 5118 5125 5122 5111 5109 5092 5077 5060 5034 5018 4977 4939 4886 4821 4757 4745 4751 4754 4759 4770 4770 4784 4807 4833 4851 4869 4886 4899 4912 4930 4952 4981 5001 5032 5066 5091 5115 5144 5168 5183 5197 5187 5178 5165 5147 5128 5102 5068 5033 4993 4968 4930 4918 4901 4876 4847 4841 4840 4844 4849 4853 4861 4870 4874 4881 4891 4896 4904 4911 4922 4927 4940 4950 4963 4977 4981 4993 5000 5020 5036 5057 5079 5099 5116 5137 5151 5163 5171 5181 5192 5200 5206 5222 5224 5235 5247 5259 5281 5294 5303 5310 5315 5319 5326 5335 5335 5329 5321 5307 5300 5295 5295 5288 5297 5316 5330 5326 5322 5312 5310 5311 5303 5298 5302 5310 5324
 5250 5230 5213 5194 5186 5172 5166 5163 5165 5162 5159 5153 5149 5139 5134 5126 5115 5107 5105 5103 5110 5121 5127 5135 5138 5133 5135 5129 5118 5103 5080 5060 5030 5003 4960 4917 4878 4817 4757 4750 4751 4755 4788 4802 4801 4785 4787 4794 4814 4818 4833 4849 4855 4877 4897 4933 4963 4991 5012 5040 5065 5094 5125 5159 5179 5197 5196 5185 5170 5142 5123 5104 5067 5033 5001 4964 4958 4937 4913 4880 4859 4846 4851 4849 4854 4858 4868 4879 4882 4889 4895 4902 4913 4919 4931 4938 4946 4960 4968 4974 4985 5000 5016 5024 5055 5075 5093 5112 5126 5143 5159 5165 5166 5176 5177 5185 5194 5202 5217 5236 5248 5255 5269 5279 5290 5300 5307 5317 5333 5344 5358 5343 5345 5336 5329 5330 5326 5328 5335 5344 5344 5341 5341 5332 5326 5316 5314 5315 5319 5316
 5271 5250 5235 5219 5214 5198 5191 5183 5183 5181 5182 5180 5172 5168 5157 5146 5144 5135 5133 5134 5135 5149 5157 5158 5158 5157 5148 5139 5126 5104 5086 5065 5025 4994 4947 4897 4856 4780 4757 4752 4750 4764 4852 4844 4833 4821 4813 4812 4816 4819 4834 4837 4844 4864 4873 4888 4917 4949 4981 5003 5033 5055 5081 5119 5152 5182 5197 5193 5180 5164 5144 5121 5092 5068 5032 5000 4982 4960 4937 4916 4895 4877 4868 4856 4853 4858 4868 4875 4889 4890 4898 4904 4910 4918 4926 4933 4945 4954 4965 4973 4989 4997 5007 5020 5052 5068 5086 5101 5114 5133 5147 5155 5158 5156 5163 5170 5180 5190 5209 5220 5224 5227 5238 5249 5269 5283 5293 5304 5318 5336 5353 5368 5363 5359 5357 5357 5357 5349 5360 5360 5356 5360 5355 5356 5344 5331 5326 5326 5327 5328
 5294 5275 5262 5246 5235 5222 5212 5200 5202 5200 5198 5199 5190 5187 5178 5173 5166 5161 5161 5168 5164 5172 5174 5174 5173 5162 5149 5136 5122 5107 5090 5059 5023 4990 4953 4912 4848 4798 4753 4752 4753 4782 4845 4879 4868 4852 4833 4830 4829 4847 4868 4882 4906 4912 4924 4923 4908 4924 4943 4971 5000 5032 5057 5093 5123 5157 5183 5194 5189 5180 5166 5143 5124 5098 5059 5034 5000 4984 4970 4951 4931 4905 4893 4887 4874 4860 4866 4881 4889 4892 4901 4904 4911 4917 4924 4934 4942 4949 4965 4975 4983 4993 5004 5013 5033 5057 5072 5093 5110 5121 5127 5131 5135 5142 5149 5155 5166 5185 5198 5195 5199 5205 5209 5223 5248 5263 5274 5290 5304 5319 5339 5367 5376 5369 5370 5366 5371 5365 5366 5367 5369 5371 5373 5368 5359 5339 5333 5337 5332 5334
 5315 5300 5288 5270 5259 5241 5231 5222 5219 5214 5211 5211 5205 5203 5199 5190 5188 5185 5183 5181 5181 5184 5178 5174 5168 5152 5141 5126 5114 5099 5072 5055 5010 4975 4929 4896 4840 4788 4757 4757 4756 4781 4839 4878 4888 4880 4861 4846 4852 4862 4881 4914 4948 4971 4977 4978 4975 4972 4963 4970 4990 5017 5041 5067 5098 5136 5171 5188 5191 5189 5186 5171 5146 5122 5092 5067 5039 5017 5002 4985 4958 4928 4929 4930 4901 4872 4868 4870 4882 4888 4899 4906 4908 4919 4925 4931 4940 4955 4962 4968 4979 4990 5004 5011 5026 5041 5062 5075 5085 5096 5107 5112 5117 5120 5132 5145 5157 5164 5174 5180 5179 5181 5191 5205 5220 5230 5258 5279 5292 5307 5326 5357 5369 5379 5376 5379 5372 5376 5379 5379 5383 5382 5385 5378 5365 5353 5346 5339 5342 5340
 5343 5327 5314 5295 5276 5259 5249 5242 5235 5230 5232 5229 5218 5213 5211 5207 5200 5195 5193 5187 5183 5181 5175 5162 5155 5142 5131 5112 5099 5075 5050 5015 4982 4957 4911 4869 4820 4772 4755 4758 4757 4777 4852 4892 4918 4907 4884 4857 4859 4873 4911 4939 4977 5012 5019 5013 5021 5028 5008 4993 4998 5012 5029 5056 5098 5130 5169 5179 5187 5195 5197 5189 5175 5159 5131 5095 5071 5057 5029 5001 4977 4952 4964 4960 4921 4894 4874 4872 4883 4887 4900 4905 4909 4917 4923 4928 4934 4948 4956 4970 4975 4984 4995 5000 5019 5034 5044 5054 5065 5078 5086 5093 5096 5106 5117 5133 5151 5161 5159 5159 5157 5159 5170 5186 5191 5210 5235 5259 5280 5290 5305 5329 5348 5366 5375 5380 5380 5386 5394 5397 5407 5402 5385 5367 5362 5342 5333 5339 5349 5348
 5373 5356 5335 5315 5295 5280 5262 5251 5246 5241 5238 5231 5228 5220 5215 5209 5200 5194 5189 5183 5175 5171 5164 5152 5143 5129 5117 5097 5080 5046 5025 4999 4960 4923 4877 4839 4784 4773 4759 4761 4759 4776 4843 4872 4915 4925 4916 4889 4881 4876 4914 4961 4977 5026 5033 5049 5052 5053 5039 5021 5024 5035 5046 5066 5098 5127 5162 5185 5199 5207 5204 5203 5192 5175 5154 5133 5111 5089 5058 5030 4994 4980 4993 4977 4948 4920 4884 4879 4884 4890 4899 4907 4911 4919 4923 4929 4933 4947 4953 4964 4966 4980 4985 4995 5008 5023 5027 5037 5047 5064 5070 5071 5079 5093 5115 5129 5139 5140 5139 5135 5132 5137 5148 5153 5165 5193 5213 5241 5260 5270 5277 5294 5310 5334 5349 5361 5373 5378 5389 5409 5413 5393 5369 5345 5339 5323 5307 5318 5339 5353
 5402 5373 5349 5323 5306 5289 5272 5258 5245 5240 5238 5231 5224 5219 5210 5200 5198 5188 5181 5173 5166 5157 5147 5139 5129 5113 5099 5079 5060 5035 5011 4972 4945 4911 4869 4824 4802 4779 4760 4760 4759 4784 4844 4904 4935 4933 4939 4930 4916 4912 4921 4945 4973 5020 5036 5056 5063 5058 5054 5041 5043 5050 5072 5081 5107 5143 5173 5196 5213 5223 5224 5222 5213 5197 5182 5164 5145 5108 5080 5059 5026 5020 5021 4999 4961 4930 4900 4884 4881 4898 4898 4906 4909 4918 4926 4931 4936 4944 4947 4958 4964 4979 4985 4992 5002 5012 5020 5023 5035 5047 5059 5058 5062 5072 5097 5116 5121 5118 5118 5112 5114 5120 5128 5127 5152 5171 5197 5218 5233 5244 5258 5270 5284 5300 5315 5338 5349 5361 5370 5392 5393 5367 5339 5314 5307 5300 5284 5301 5327 5357
 5410 5385 5360 5336 5312 5298 5274 5259 5244 5233 5226 5218 5212 5204 5195 5190 5183 5173 5169 5160 5149 5145 5135 5128 5112 5100 5078 5057 5040 5015 4993 4964 4922 4913 4878 4834 4791 4769 4764 4761 4766 4774 4832 4880 4914 4943 4952 4954 4940 4943 4937 4954 4983 5003 5032 5062 5074 5066 5067 5060 5061 5072 5093 5106 5125 5157 5189 5212 5228 5237 5239 5239 5234 5219 5196 5177 5156 5127 5106 5076 5052 5054 5047 5011 4979 4941 4912 4890 4886 4891 4902 4913 4912 4912 4921 4924 4933 4938 4945 4953 4960 4971 4973 4987 4992 5000 5009 5015 5025 5031 5041 5047 5049 5061 5075 5087 5094 5095 5095 5093 5098 5101 5107 5115 5132 5155 5169 5187 5204 5225 5236 5250 5264 5270 5285 5302 5325 5344 5356 5366 5361 5336 5317 5296 5284 5271 5259 5284 5309 5332
 5412 5388 5366 5347 5321 5300 5279 5262 5242 5228 5214 5199 5187 5178 5174 5171 5164 5153 5143 5139 5129 5127 5118 5111 5101 5088 5070 5045 5028 5004 4979 4966 4951 4913 4880 4827 4795 4771 4764 4761 4766 4778 4822 4859 4893 4932 4960 4974 4985 4969 4981 4984 5001 5022 5046 5071 5096 5096 5086 5080 5077 5087 5119 5136 5145 5171 5206 5232 5250 5258 5255 5250 5243 5239 5222 5209 5188 5164 5138 5100 5085 5079 5057 5024 4990 4956 4936 4906 4891 4893 4900 4905 4915 4917 4922 4928 4933 4940 4949 4952 4960 4969 4973 4984 4991 4992 5003 5010 5017 5026 5030 5035 5043 5050 5056 5065 5069 5071 5075 5083 5083 5090 5093 5099 5113 5132 5152 5168 5185 5202 5222 5230 5239 5250 5265 5282 5302 5328 5342 5344 5332 5321 5301 5279 5259 5237 5234 5256 5278 5309
 5406 5387 5372 5350 5327 5307 5284 5253 5236 5218 5204 5188 5172 5156 5150 5143 5133 5126 5118 5107 5103 5098 5096 5091 5086 5072 5058 5035 5015 4991 4967 4939 4916 4888 4857 4826 4787 4775 4767 4763 4760 4796 4842 4864 4895 4929 4948 4977 4989 5001 5011 5007 5027 5050 5067 5087 5110 5122 5117 5108 5098 5108 5143 5167 5170 5185 5213 5241 5262 5270 5267 5266 5263 5256 5247 5234 5210 5188 5150 5133 5130 5112 5074 5040 5009 4979 4953 4932 4904 4895 4903 4912 4915 4916 4925 4928 4932 4940 4946 4954 4960 4964 4970 4976 4988 4991 4999 5006 5009 5020 5026 5025 5036 5038 5039 5050 5055 5057 5062 5066 5075 5077 5083 5087 5103 5108 5123 5148 5170 5184 5193 5207 5212 5230 5248 5262 5283 5303 5318 5322 5321 5313 5293 5271 5251 5224 5210 5232 5257 5280
 5395 5377 5366 5351 5331 5307 5273 5249 5223 5205 5187 5174 5157 5141 5121 5115 5107 5094 5089 5083 5074 5062 5063 5067 5070 5060 5050 5029 5005 4986 4955 4926 4894 4864 4838 4814 4789 4777 4766 4764 4772 4789 4821 4853 4881 4918 4946 4982 5006 5034 5054 5058 5067 5083 5104 5126 5135 5153 5163 5149 5134 5137 5160 5187 5198 5214 5234 5255 5279 5280 5282 5280 5274 5272 5268 5246 5225 5193 5176 5169 5165 5143 5118 5070 5033 4997 4970 4946 4921 4897 4903 4910 4910 4922 4927 4932 4938 4945 4947 4952 4961 4966 4972 4977 4981 4985 4993 5002 5006 5010 5017 5019 5024 5030 5032 5032 5043 5046 5050 5059 5063 5065 5068 5080 5087 5100 5110 5123 5141 5163 5165 5182 5198 5212 5235 5256 5265 5282 5292 5296 5297 5296 5287 5264 5245 5225 5193 5204 5232 5249
 5393 5370 5346 5328 5312 5293 5256 5227 5200 5181 5164 5148 5129 5112 5093 5080 5072 5060 5057 5045 5038 5030 5030 5043 5047 5049 5032 5025 5012 4984 4951 4920 4891 4857 4821 4807 4784 4775 4774 4771 4769 4783 4831 4866 4877 4905 4940 4971 5013 5050 5081 5098 5105 5120 5147 5171 5186 5195 5188 5173 5160 5167 5185 5213 5238 5253 5271 5278 5284 5292 5293 5295 5294 5291 5281 5272 5253 5231 5224 5216 5201 5170 5135 5083 5050 5024 4993 4972 4944 4916 4902 4910 4913 4924 4926 4935 4937 4944 4946 4955 4960 4965 4970 4977 4980 4984 4988 4995 5004 5007 5008 5009 5014 5017 5021 5028 5035 5041 5043 5050 5054 5056 5062 5071 5079 5094 5102 5103 5124 5137 5144 5158 5180 5206 5225 5240 5256 5264 5274 5273 5276 5272 5266 5260 5239 5216 5193 5181 5202 5218
 5408 5383 5362 5332 5301 5269 5241 5210 5188 5169 5151 5130 5108 5080 5061 5047 5036 5024 5014 5009 5004 4996 4994 5008 5031 5021 5015 5010 4995 4981 4943 4928 4892 4866 4829 4808 4778 4776 4772 4770 4771 4786 4850 4894 4914 4913 4943 4975 5020 5057 5099 5125 5147 5171 5188 5205 5217 5222 5216 5204 5194 5205 5217 5240 5254 5273 5286 5297 5305 5306 5306 5312 5311 5308 5298 5287 5274 5261 5257 5246 5224 5188 5154 5115 5081 5056 5025 4989 4966 4946 4912 4910 4914 4923 4926 4934 4939 4945 4947 4951 4961 4963 4969 4975 4978 4985 4985 4990 4998 5001 5003 5004 5008 5013 5019 5026 5029 5034 5042 5041 5045 5050 5052 5059 5068 5077 5089 5098 5114 5118 5133 5150 5172 5188 5203 5224 5240 5244 5256 5257 5254 5251 5242 5235 5221 5198 5171 5164 5170 5195
 5421 5397 5373 5344 5318 5284 5251 5216 5191 5172 5152 5132 5116 5083 5059 5037 5020 5003 4981 4971 4963 4954 4961 4969 4995 4985 4969 4964 4951 4934 4914 4887 4867 4845 4822 4807 4783 4777 4775 4773 4763 4788 4882 4901 4956 4966 4972 4981 5017 5061 5103 5139 5174 5200 5215 5224 5228 5228 5226 5222 5222 5226 5239 5257 5266 5276 5294 5307 5313 5319 5329 5332 5331 5319 5311 5302 5287 5279 5272 5254 5239 5213 5174 5149 5115 5075 5040 5012 4984 4960 4933 4911 4915 4922 4927 4932 4939 4941 4949 4949 4958 4959 4970 4973 4979 4986 4984 4990 4994 4995 5000 4999 5003 5008 5014 5017 5023 5025 5030 5034 5040 5040 5046 5058 5063 5069 5080 5089 5097 5105 5115 5136 5155 5169 5178 5202 5222 5236 5240 5240 5237 5226 5215 5206 5202 5183 5161 5149 5171 5190
 5437 5409 5386 5357 5327 5299 5264 5233 5199 5181 5158 5140 5124 5103 5072 5057 5037 5019 4997 4975 4951 4934 4923 4930 4945 4939 4925 4909 4900 4885 4855 4837 4824 4813 4804 4796 4782 4777 4772 4773 4771 4815 4881 4920 4982 5005 5019 5022 5044 5063 5106 5144 5182 5199 5201 5211 5219 5224 5225 5223 5225 5232 5245 5260 5268 5282 5297 5308 5317 5324 5332 5338 5339 5334 5329 5318 5304 5304 5291 5279 5259 5241 5216 5179 5137 5096 5066 5024 5004 4982 4962 4931 4914 4917 4924 4931 4937 4941 4949 4948 4956 4964 4966 4967 4972 4979 4982 4984 4993 4992 4993 4993 4998 5003 5010 5012 5015 5018 5020 5027 5034 5035 5037 5053 5053 5071 5076 5080 5082 5093 5104 5119 5138 5150 5166 5185 5200 5213 5218 5222 5206 5198 5179 5180 5170 5159 5143 5146 5181 5209
 5443 5420 5393 5366 5338 5307 5274 5252 5220 5195 5173 5155 5133 5118 5096 5080 5066 5045 5020 4997 4975 4953 4921 4900 4902 4892 4878 4864 4850 4835 4812 4803 4796 4793 4794 4787 4781 4777 4773 4774 4777 4829 4886 4935 4976 5008 5042 5065 5076 5092 5115 5147 5175 5183 5185 5185 5194 5205 5215 5218 5219 5228 5241 5259 5271 5279 5288 5303 5310 5316 5323 5325 5329 5325 5325 5320 5314 5316 5324 5306 5282 5255 5228 5194 5155 5112 5077 5052 5030 5006 4988 4954 4923 4920 4925 4929 4940 4944 4947 4946 4954 4961 4962 4966 4971 4970 4976 4980 4982 4983 4990 4992 4990 4993 5000 5003 5009 5011 5010 5010 5022 5028 5032 5041 5043 5052 5055 5066 5076 5088 5100 5106 5124 5135 5154 5166 5180 5182 5183 5182 5181 5168 5155 5156 5153 5137 5135 5153 5184 5211
 5455 5426 5400 5377 5350 5321 5290 5263 5232 5208 5183 5168 5147 5130 5119 5098 5083 5065 5048 5022 5006 4971 4935 4895 4872 4862 4837 4824 4815 4812 4816 4836 4844 4830 4826 4797 4787 4780 4779 4776 4779 4838 4875 4926 4969 5003 5044 5068 5088 5104 5122 5140 5153 5163 5165 5167 5172 5186 5195 5205 5211 5221 5233 5254 5265 5277 5285 5295 5299 5308 5310 5306 5306 5304 5305 5308 5305 5309 5310 5310 5289 5272 5241 5207 5166 5141 5107 5077 5051 5028 5001 4981 4955 4928 4925 4932 4936 4934 4947 4955 4952 4956 4958 4964 4964 4965 4967 4972 4979 4979 4977 4978 4981 4986 4989 4992 4992 4996 5001 5006 5005 5010 5015 5021 5032 5030 5042 5061 5073 5084 5090 5103 5110 5118 5134 5150 5152 5152 5145 5148 5148 5134 5123 5125 5126 5128 5135 5149 5177 5209
 5466 5431 5414 5378 5359 5332 5297 5269 5246 5218 5191 5175 5157 5133 5123 5107 5088 5070 5040 5024 5006 4973 4943 4901 4866 4852 4855 4860 4855 4852 4847 4860 4880 4863 4839 4794 4786 4780 4781 4781 4782 4834 4885 4928 4969 4998 5037 5058 5076 5094 5113 5133 5141 5136 5134 5144 5151 5165 5175 5190 5202 5218 5229 5245 5256 5269 5279 5286 5291 5292 5292 5291 5288 5284 5284 5287 5291 5300 5301 5299 5285 5269 5252 5226 5201 5172 5137 5115 5068 5036 5014 4996 4973 4953 4929 4927 4930 4934 4946 4948 4948 4953 4958 4963 4962 4967 4969 4966 4970 4968 4972 4974 4981 4985 4986 4991 4994 5002 5005 5002 5008 5010 5013 5014 5017 5022 5033 5046 5053 5066 5073 5080 5088 5092 5106 5118 5119 5116 5110 5100 5099 5096 5106 5115 5139 5149 5146 5143 5161 5188
 5471 5443 5416 5389 5366 5335 5310 5277 5253 5226 5201 5180 5163 5138 5123 5109 5083 5066 5045 5016 4985 4958 4927 4895 4896 4905 4917 4914 4899 4889 4885 4894 4897 4886 4848 4800 4783 4784 4787 4780 4790 4846 4878 4931 4962 5003 5023 5051 5056 5069 5087 5105 5116 5113 5115 5123 5137 5156 5167 5187 5203 5220 5232 5240 5249 5261 5267 5277 5279 5279 5273 5267 5268 5262 5265 5267 5272 5281 5289 5290 5282 5267 5255 5234 5206 5177 5150 5120 5082 5057 5038 5013 4995 4983 4956 4938 4930 4935 4942 4950 4948 4951 4953 4955 4960 4965 4966 4963 4967 4965 4973 4974 4981 4985 4984 4988 4992 5000 4999 5005 5008 5012 5012 5017 5021 5024 5024 5031 5039 5047 5057 5060 5065 5066 5070 5074 5077 5079 5079 5094 5105 5118 5136 5145 5159 5174 5161 5163 5162 5169
 5470 5443 5419 5395 5370 5341 5317 5283 5262 5235 5214 5183 5162 5148 5120 5092 5078 5060 5033 5004 4981 4952 4925 4928 4943 4959 4972 4973 4945 4928 4913 4900 4886 4859 4828 4789 4779 4787 4780 4777 4789 4842 4898 4936 4972 4998 5016 5041 5033 5044 5051 5063 5074 5081 5094 5122 5144 5162 5170 5187 5199 5218 5229 5230 5234 5238 5244 5254 5260 5259 5256 5247 5236 5240 5241 5241 5250 5262 5271 5278 5276 5266 5253 5235 5203 5178 5154 5134 5105 5083 5060 5036 5019 5001 4982 4963 4944 4934 4938 4940 4943 4948 4949 4954 4954 4954 4956 4961 4964 4966 4970 4971 4979 4982 4986 4991 4993 4996 4999 5002 5002 5010 5014 5019 5025 5025 5028 5028 5031 5035 5036 5037 5050 5058 5061 5069 5085 5103 5108 5127 5133 5148 5161 5183 5205 5205 5179 5188 5199 5197
 5475 5444 5422 5396 5375 5344 5320 5283 5258 5248 5207 5191 5163 5142 5122 5096 5076 5045 5019 5000 4971 4949 4960 4976 4992 5013 5020 5010 4986 4966 4942 4916 4887 4846 4817 4797 4787 4787 4781 4780 4796 4836 4896 4937 4978 4997 5015 5021 5022 5025 5032 5030 5040 5063 5104 5132 5155 5161 5175 5180 5200 5213 5223 5225 5223 5220 5216 5221 5225 5229 5224 5214 5205 5210 5214 5216 5234 5246 5258 5263 5271 5265 5252 5234 5220 5200 5165 5150 5127 5098 5079 5065 5036 5016 5005 4990 4973 4956 4940 4938 4938 4947 4942 4944 4949 4955 4958 4965 4971 4975 4982 4993 5006 5019 5034 5039 5030 5032 5034 5038 5032 5027 5037 5024 5022 5028 5030 5030 5035 5042 5047 5056 5058 5076 5091 5107 5124 5134 5146 5160 5169 5185 5192 5212 5219 5212 5191 5207 5231 5236
 5469 5445 5419 5396 5374 5346 5318 5293 5269 5243 5221 5195 5167 5135 5120 5083 5063 5029 5008 4986 4976 4988 5004 5019 5038 5051 5052 5044 5027 4996 4968 4943 4899 4864 4819 4789 4780 4783 4783 4785 4799 4839 4885 4919 4948 4968 4987 4993 4994 4995 5001 5015 5041 5071 5105 5125 5147 5159 5169 5177 5188 5200 5205 5209 5208 5201 5194 5190 5192 5193 5182 5173 5160 5170 5173 5192 5212 5230 5239 5250 5260 5264 5257 5241 5227 5207 5182 5166 5144 5127 5102 5080 5061 5044 5018 5000 4992 4974 4959 4954 4962 4961 4968 4972 4985 4990 4994 4996 5004 5006 5004 5021 5051 5067 5087 5085 5077 5077 5087 5082 5065 5064 5058 5054 5046 5026 5031 5034 5040 5043 5068 5068 5068 5091 5092 5111 5133 5157 5161 5169 5176 5186 5188 5196 5205 5209 5205 5223 5240 5246
 5458 5436 5411 5390 5361 5340 5314 5290 5267 5243 5209 5191 5169 5135 5107 5086 5054 5024 5001 5004 5015 5025 5041 5058 5074 5086 5091 5078 5056 5022 5005 4960 4934 4880 4823 4800 4785 4784 4784 4795 4797 4825 4861 4883 4909 4919 4941 4948 4951 4967 4998 5034 5057 5080 5099 5110 5129 5144 5155 5167 5172 5187 5188 5187 5185 5182 5176 5163 5157 5148 5140 5127 5123 5128 5141 5164 5191 5213 5226 5240 5249 5263 5266 5254 5233 5217 5198 5172 5155 5136 5107 5092 5072 5050 5029 5010 5000 4989 4973 4976 4987 4986 4992 5008 5018 5027 5027 5025 5031 5028 5023 5048 5080 5112 5126 5123 5120 5117 5115 5109 5096 5081 5073 5068 5060 5038 5032 5040 5038 5048 5058 5073 5070 5076 5085 5094 5118 5136 5145 5146 5155 5162 5174 5189 5201 5213 5221 5234 5247 5255
 5449 5426 5401 5375 5353 5330 5307 5283 5260 5243 5210 5184 5163 5127 5109 5081 5049 5019 5030 5040 5051 5065 5081 5097 5118 5134 5127 5119 5095 5061 5030 4984 4942 4900 4843 4803 4787 4786 4792 4788 4800 4808 4825 4836 4856 4873 4890 4911 4947 4985 5007 5052 5062 5078 5096 5101 5107 5115 5129 5141 5152 5159 5167 5166 5162 5155 5146 5126 5121 5113 5104 5096 5091 5094 5110 5137 5164 5198 5215 5230 5242 5256 5268 5263 5245 5224 5204 5191 5167 5148 5119 5098 5077 5059 5034 5024 5013 4997 4982 4990 5002 5012 5011 5027 5037 5050 5051 5055 5064 5060 5049 5056 5098 5128 5157 5165 5156 5152 5146 5128 5122 5099 5088 5080 5070 5057 5042 5039 5041 5044 5054 5058 5063 5072 5089 5097 5109 5118 5131 5147 5161 5170 5178 5194 5208 5221 5230 5242 5258 5266
 5431 5407 5386 5364 5340 5320 5299 5273 5250 5231 5198 5176 5153 5124 5106 5065 5039 5044 5059 5074 5094 5105 5120 5135 5155 5170 5171 5148 5123 5087 5053 5009 4968 4918 4863 4793 4788 4785 4791 4801 4805 4822 4818 4849 4860 4882 4911 4934 4973 5001 5031 5049 5061 5072 5084 5086 5091 5095 5096 5100 5110 5124 5130 5133 5131 5121 5106 5088 5083 5076 5071 5064 5059 5068 5089 5118 5145 5183 5203 5217 5232 5248 5263 5270 5257 5239 5218 5197 5182 5165 5142 5108 5084 5072 5051 5040 5025 5011 4996 5002 5012 5029 5032 5035 5056 5072 5080 5085 5089 5093 5080 5070 5099 5144 5174 5193 5194 5189 5181 5163 5146 5132 5120 5102 5088 5084 5066 5047 5046 5047 5059 5060 5064 5074 5092 5098 5120 5136 5144 5157 5172 5182 5199 5214 5218 5233 5243 5254 5265 5278
 5418 5397 5376 5347 5324 5310 5286 5263 5239 5214 5197 5169 5147 5117 5091 5069 5067 5073 5092 5110 5127 5151 5164 5184 5197 5203 5201 5171 5150 5118 5073 5031 4975 4928 4864 4799 4791 4790 4795 4805 4843 4852 4853 4860 4893 4904 4933 4962 4997 5010 5029 5037 5050 5062 5071 5074 5077 5073 5070 5068 5072 5078 5085 5104 5095 5084 5069 5049 5041 5040 5040 5039 5032 5044 5066 5097 5123 5155 5186 5203 5222 5239 5257 5270 5265 5246 5228 5205 5192 5174 5150 5119 5100 5086 5070 5057 5043 5029 5016 5029 5034 5040 5056 5052 5058 5079 5104 5121 5125 5125 5114 5098 5105 5142 5179 5211 5225 5225 5211 5193 5172 5155 5149 5134 5114 5095 5089 5057 5047 5048 5055 5061 5072 5072 5078 5090 5107 5138 5161 5184 5193 5199 5221 5225 5234 5244 5256 5266 5279 5294
 5411 5384 5365 5331 5317 5295 5273 5257 5230 5211 5191 5171 5146 5121 5099 5092 5097 5109 5130 5148 5169 5191 5200 5219 5233 5238 5228 5203 5168 5137 5075 5028 4980 4926 4883 4805 4793 4790 4797 4807 4852 4891 4897 4883 4911 4930 4950 4975 4993 5010 5019 5026 5032 5041 5045 5046 5057 5055 5041 5040 5039 5036 5047 5052 5058 5038 5028 5017 5013 5005 5001 4997 5006 5031 5050 5074 5105 5132 5158 5187 5214 5232 5255 5272 5270 5255 5234 5218 5196 5180 5156 5133 5117 5097 5090 5065 5057 5046 5040 5042 5052 5054 5065 5073 5077 5094 5119 5147 5157 5157 5153 5133 5121 5149 5185 5221 5247 5252 5245 5223 5201 5185 5171 5157 5134 5116 5095 5075 5056 5056 5061 5067 5073 5075 5078 5082 5099 5136 5170 5179 5199 5221 5227 5244 5256 5263 5283 5288 5311 5329
 5396 5371 5344 5319 5297 5287 5266 5245 5226 5208 5185 5170 5144 5126 5114 5123 5134 5142 5168 5184 5204 5229 5242 5257 5264 5265 5249 5221 5185 5141 5084 5035 4978 4933 4880 4798 4797 4796 4795 4810 4852 4892 4920 4921 4920 4920 4944 4973 4982 4992 4999 5005 5004 5010 5016 5022 5029 5026 5016 5006 5007 5003 5004 5010 5014 5006 4993 4987 4983 4973 4971 4990 5022 5047 5065 5082 5106 5128 5152 5185 5208 5230 5248 5268 5275 5263 5247 5226 5206 5190 5167 5149 5133 5116 5105 5092 5075 5064 5061 5069 5067 5071 5080 5104 5113 5113 5135 5157 5176 5186 5182 5169 5152 5163 5194 5225 5258 5271 5258 5239 5228 5213 5190 5173 5159 5141 5108 5090 5085 5072 5065 5067 5073 5079 5084 5090 5093 5118 5153 5180 5212 5237 5246 5253 5264 5296 5328 5355 5358 5368
 5387 5357 5328 5299 5282 5262 5246 5230 5216 5205 5190 5167 5159 5144 5141 5157 5171 5185 5202 5225 5244 5265 5287 5296 5297 5288 5266 5230 5187 5137 5087 5024 4971 4923 4872 4799 4798 4795 4796 4807 4840 4892 4936 4936 4932 4928 4944 4953 4961 4965 4969 4969 4975 4979 4977 4980 4985 4987 4983 4971 4968 4967 4966 4969 4970 4967 4963 4951 4951 4958 4982 5014 5050 5071 5093 5104 5132 5164 5177 5194 5211 5229 5245 5258 5269 5265 5251 5235 5213 5202 5188 5174 5160 5153 5137 5119 5099 5086 5084 5083 5084 5094 5099 5115 5141 5142 5150 5163 5188 5208 5213 5203 5188 5186 5214 5241 5267 5284 5280 5268 5251 5237 5216 5192 5169 5148 5120 5112 5114 5100 5092 5081 5076 5083 5087 5090 5092 5108 5142 5177 5210 5228 5236 5251 5273 5312 5348 5383 5394 5411
 5382 5346 5319 5289 5267 5254 5238 5225 5220 5207 5197 5193 5182 5181 5182 5183 5204 5222 5239 5260 5280 5304 5321 5325 5314 5293 5263 5218 5181 5117 5079 5022 4968 4916 4868 4799 4799 4797 4805 4814 4822 4871 4921 4931 4920 4918 4926 4928 4929 4925 4925 4927 4929 4939 4943 4941 4948 4946 4948 4941 4936 4938 4939 4937 4933 4930 4934 4936 4954 4969 4998 5035 5066 5094 5122 5132 5153 5184 5195 5205 5217 5227 5239 5252 5261 5268 5258 5246 5237 5221 5206 5189 5174 5162 5144 5129 5115 5111 5101 5109 5113 5118 5120 5134 5150 5168 5172 5188 5207 5232 5244 5241 5226 5221 5236 5261 5287 5300 5297 5284 5270 5248 5222 5201 5176 5156 5144 5147 5133 5125 5104 5095 5098 5092 5095 5096 5100 5104 5128 5159 5191 5213 5234 5244 5274 5304 5341 5387 5419 5441
 5381 5350 5318 5292 5273 5262 5249 5239 5238 5230 5232 5225 5224 5219 5219 5219 5237 5252 5273 5294 5316 5335 5343 5336 5311 5288 5242 5193 5148 5108 5058 5009 4959 4904 4837 4802 4801 4806 4803 4808 4816 4846 4893 4900 4893 4885 4886 4885 4885 4887 4887 4892 4893 4898 4902 4909 4906 4913 4916 4914 4908 4912 4911 4913 4915 4923 4939 4964 4980 4991 5006 5049 5075 5100 5130 5143 5161 5189 5197 5208 5217 5227 5236 5244 5250 5256 5257 5258 5253 5236 5222 5201 5185 5174 5158 5145 5138 5131 5126 5127 5136 5146 5154 5163 5175 5186 5202 5209 5230 5248 5266 5267 5264 5259 5262 5284 5306 5313 5305 5292 5276 5259 5232 5210 5190 5171 5176 5164 5151 5134 5119 5110 5116 5112 5105 5105 5106 5112 5117 5149 5178 5205 5228 5238 5260 5298 5336 5382 5407 5440
 5392 5363 5329 5311 5297 5281 5271 5267 5271 5268 5263 5263 5261 5255 5255 5259 5266 5285 5302 5320 5343 5351 5343 5325 5300 5264 5211 5166 5122 5070 5036 4983 4953 4901 4812 4797 4803 4807 4805 4811 4814 4823 4848 4858 4859 4852 4852 4851 4851 4854 4855 4862 4865 4868 4876 4877 4880 4884 4885 4889 4889 4899 4905 4918 4924 4944 4964 4997 5023 5015 5023 5043 5085 5100 5131 5147 5164 5184 5197 5204 5213 5223 5229 5232 5235 5240 5249 5254 5255 5249 5236 5221 5204 5192 5177 5168 5162 5158 5149 5150 5157 5170 5182 5189 5191 5201 5217 5228 5247 5262 5287 5292 5291 5288 5299 5306 5317 5322 5307 5295 5279 5258 5240 5221 5206 5200 5198 5186 5167 5149 5134 5128 5128 5127 5118 5114 5122 5119 5117 5129 5167 5198 5210 5227 5255 5295 5329 5360 5390 5416
 5407 5381 5353 5334 5319 5316 5311 5312 5308 5306 5308 5307 5306 5298 5295 5293 5296 5311 5325 5338 5351 5342 5328 5303 5272 5232 5181 5137 5088 5045 4997 4964 4935 4883 4812 4801 4802 4809 4811 4811 4813 4820 4820 4833 4831 4836 4836 4838 4842 4844 4849 4857 4851 4854 4858 4860 4862 4866 4877 4882 4890 4906 4916 4929 4947 4964 4993 5027 5050 5050 5047 5056 5082 5105 5133 5142 5156 5176 5189 5198 5205 5210 5214 5217 5223 5227 5233 5244 5249 5248 5245 5236 5222 5211 5198 5190 5182 5173 5167 5170 5177 5178 5177 5187 5199 5210 5228 5248 5257 5264 5282 5292 5296 5305 5308 5316 5325 5335 5322 5301 5281 5265 5254 5240 5225 5221 5218 5201 5186 5167 5153 5150 5147 5140 5134 5126 5124 5128 5126 5132 5155 5178 5197 5215 5249 5283 5319 5342 5370 5402
 5426 5402 5382 5366 5372 5363 5368 5355 5357 5358 5349 5351 5344 5333 5326 5327 5334 5337 5347 5351 5348 5332 5312 5292 5246 5205 5154 5117 5063 5006 4972 4948 4918 4871 4812 4804 4806 4810 4812 4814 4812 4817 4820 4826 4834 4840 4855 4861 4873 4887 4881 4886 4879 4883 4871 4876 4879 4894 4897 4905 4916 4927 4940 4954 4972 5000 5023 5053 5080 5079 5076 5087 5092 5110 5126 5139 5149 5162 5176 5190 5197 5198 5200 5205 5208 5214 5221 5229 5234 5235 5241 5239 5229 5221 5208 5198 5188 5177 5169 5163 5165 5159 5160 5163 5171 5186 5206 5224 5234 5244 5258 5270 5283 5291 5297 5306 5318 5342 5345 5325 5299 5279 5263 5253 5242 5238 5227 5212 5198 5182 5171 5169 5164 5153 5152 5144 5132 5137 5141 5136 5142 5162 5192 5213 5234 5256 5291 5321 5338 5386
 5450 5430 5415 5413 5410 5413 5409 5402 5406 5406 5400 5392 5384 5372 5357 5361 5357 5359 5358 5356 5345 5322 5294 5259 5223 5180 5130 5087 5039 5004 4970 4941 4903 4849 4809 4809 4810 4810 4812 4816 4818 4817 4822 4825 4849 4873 4881 4882 4907 4920 4917 4916 4915 4900 4894 4899 4909 4912 4929 4935 4949 4952 4971 4982 5005 5030 5058 5084 5103 5109 5107 5113 5116 5116 5127 5143 5148 5151 5160 5170 5182 5182 5186 5191 5197 5202 5208 5213 5219 5216 5218 5218 5208 5204 5197 5183 5175 5162 5153 5143 5143 5140 5139 5141 5152 5164 5175 5192 5206 5223 5243 5255 5262 5274 5287 5296 5303 5324 5346 5337 5320 5298 5283 5267 5259 5252 5240 5227 5213 5195 5195 5194 5188 5179 5167 5163 5150 5140 5145 5143 5148 5157 5172 5199 5217 5237 5270 5289 5309 5350
 5473 5462 5462 5467 5464 5463 5463 5454 5447 5446 5443 5433 5416 5407 5386 5380 5379 5371 5362 5355 5342 5322 5297 5255 5211 5162 5128 5070 5032 4997 4964 4922 4887 4834 4806 4813 4810 4813 4814 4819 4821 4823 4831 4829 4836 4845 4862 4888 4894 4904 4911 4914 4914 4920 4920 4926 4940 4952 4968 4981 4979 4995 5004 5019 5034 5063 5089 5106 5124 5138 5137 5139 5136 5132 5131 5142 5145 5144 5145 5145 5158 5165 5171 5174 5183 5190 5195 5199 5197 5197 5194 5193 5191 5184 5175 5167 5156 5149 5139 5131 5129 5125 5126 5130 5136 5150 5158 5170 5183 5202 5210 5231 5251 5261 5272 5281 5290 5314 5347 5366 5338 5321 5300 5288 5281 5267 5252 5236 5223 5219 5219 5217 5205 5195 5184 5174 5176 5161 5151 5152 5160 5163 5174 5194 5210 5238 5256 5279 5294 5328
 5486 5498 5502 5507 5515 5514 5497 5504 5491 5484 5478 5463 5442 5424 5407 5394 5379 5365 5358 5347 5340 5320 5286 5257 5208 5169 5116 5054 5038 5013 4966 4922 4892 4826 4809 4817 4813 4819 4816 4817 4821 4823 4826 4833 4837 4836 4841 4851 4873 4885 4897 4904 4913 4929 4935 4939 4967 4973 4985 4984 5000 5024 5032 5050 5065 5092 5107 5123 5140 5143 5144 5156 5149 5140 5138 5138 5137 5134 5132 5132 5139 5145 5154 5161 5167 5177 5185 5183 5182 5178 5172 5167 5169 5166 5158 5150 5142 5137 5126 5119 5115 5114 5114 5115 5124 5132 5139 5156 5159 5171 5184 5212 5231 5247 5255 5267 5278 5300 5337 5365 5360 5341 5329 5310 5302 5288 5271 5252 5245 5236 5240 5241 5226 5214 5207 5201 5201 5186 5167 5164 5167 5173 5183 5191 5198 5231 5253 5271 5283 5306
 5475 5489 5505 5530 5551 5550 5548 5544 5535 5518 5496 5472 5450 5430 5412 5393 5373 5355 5333 5322 5315 5307 5287 5271 5233 5180 5114 5064 5038 5030 4987 4933 4896 4838 4814 4815 4814 4818 4819 4820 4823 4828 4828 4833 4835 4838 4835 4844 4847 4855 4878 4885 4901 4917 4935 4946 4961 4976 4984 4993 5014 5034 5055 5068 5081 5099 5108 5121 5133 5127 5135 5136 5141 5136 5132 5129 5122 5117 5115 5115 5118 5124 5135 5143 5157 5166 5173 5170 5164 5159 5155 5152 5152 5151 5142 5135 5126 5121 5110 5106 5106 5106 5105 5106 5109 5112 5118 5125 5134 5146 5162 5182 5210 5233 5244 5251 5267 5288 5320 5348 5371 5363 5342 5334 5330 5311 5286 5273 5267 5259 5266 5264 5254 5247 5228 5228 5224 5214 5189 5173 5177 5183 5186 5191 5205 5216 5236 5252 5263 5284
 5440 5472 5490 5515 5536 5544 5551 5544 5530 5514 5491 5469 5443 5418 5396 5372 5349 5327 5303 5285 5282 5284 5281 5264 5213 5161 5114 5083 5047 5025 4988 4935 4895 4838 4815 4816 4820 4821 4821 4820 4827 4831 4832 4833 4831 4838 4844 4844 4846 4847 4856 4859 4873 4899 4922 4944 4955 4967 4976 4992 5006 5025 5045 5064 5074 5091 5096 5106 5115 5112 5111 5114 5111 5110 5106 5105 5102 5102 5096 5095 5102 5107 5118 5133 5146 5154 5161 5158 5148 5143 5136 5132 5135 5134 5129 5118 5115 5106 5099 5094 5091 5088 5093 5096 5099 5099 5104 5113 5125 5141 5154 5168 5194 5212 5231 5245 5259 5285 5311 5339 5366 5370 5364 5357 5343 5324 5302 5291 5282 5282 5291 5293 5284 5271 5258 5251 5238 5224 5210 5192 5182 5190 5194 5205 5212 5221 5227 5240 5249 5263
 5413 5439 5463 5486 5510 5516 5518 5517 5510 5493 5477 5453 5426 5402 5377 5351 5326 5294 5273 5244 5242 5256 5254 5240 5197 5143 5109 5075 5026 5002 4963 4927 4885 4843 4816 4815 4819 4820 4824 4824 4823 4830 4830 4832 4835 4838 4843 4843 4847 4850 4855 4855 4855 4872 4896 4917 4942 4949 4969 4980 4997 5016 5035 5047 5063 5069 5077 5074 5081 5079 5076 5077 5074 5075 5071 5071 5071 5073 5071 5074 5087 5101 5112 5127 5142 5145 5143 5138 5127 5124 5119 5115 5115 5120 5116 5106 5098 5092 5091 5084 5081 5079 5083 5088 5099 5109 5119 5128 5138 5149 5162 5176 5192 5202 5219 5238 5254 5280 5304 5330 5355 5375 5389 5388 5374 5354 5328 5321 5314 5314 5322 5319 5309 5294 5285 5267 5263 5251 5230 5212 5198 5203 5211 5216 5227 5234 5238 5247 5257 5265
 5385 5417 5435 5458 5478 5486 5490 5487 5480 5467 5452 5430 5406 5381 5358 5331 5301 5271 5237 5212 5193 5203 5211 5208 5175 5132 5086 5043 5008 4984 4946 4913 4879 4832 4814 4819 4820 4822 4822 4825 4829 4829 4832 4835 4836 4841 4844 4847 4850 4853 4856 4857 4862 4861 4872 4892 4912 4930 4952 4960 4974 4990 5011 5036 5042 5051 5051 5051 5045 5044 5039 5042 5039 5039 5040 5037 5039 5047 5054 5074 5091 5098 5113 5124 5131 5134 5128 5124 5113 5110 5102 5101 5096 5096 5092 5094 5088 5087 5077 5076 5074 5077 5080 5091 5108 5118 5128 5140 5148 5169 5183 5195 5197 5206 5217 5235 5256 5276 5305 5331 5353 5374 5408 5412 5396 5372 5360 5348 5345 5345 5345 5343 5332 5322 5305 5294 5285 5277 5260 5243 5224 5217 5218 5231 5238 5241 5250 5258 5263 5274
 5354 5387 5415 5439 5448 5461 5462 5458 5449 5438 5423 5409 5384 5362 5339 5310 5285 5254 5204 5176 5156 5151 5170 5164 5149 5112 5062 5022 4992 4961 4929 4907 4880 4832 4823 4821 4820 4824 4824 4827 4830 4830 4835 4836 4839 4840 4846 4847 4849 4848 4852 4859 4862 4864 4863 4871 4881 4896 4913 4933 4943 4964 4988 5011 5024 5028 5025 5021 5016 5012 5011 5009 5008 5008 5013 5018 5032 5046 5063 5080 5092 5105 5113 5122 5126 5120 5117 5110 5103 5097 5091 5085 5087 5083 5076 5074 5073 5069 5064 5069 5073 5077 5087 5095 5111 5124 5140 5156 5163 5187 5205 5217 5222 5223 5235 5247 5262 5281 5305 5332 5359 5384 5416 5436 5426 5409 5389 5383 5376 5379 5376 5366 5349 5335 5328 5313 5303 5288 5270 5258 5241 5231 5232 5237 5246 5252 5256 5265 5271 5279
 5333 5370 5389 5409 5422 5427 5431 5429 5424 5413 5404 5387 5365 5341 5318 5291 5265 5229 5190 5155 5115 5108 5121 5125 5118 5078 5039 4998 4970 4940 4922 4897 4876 4840 4826 4821 4821 4824 4828 4829 4831 4835 4839 4841 4843 4843 4846 4848 4851 4853 4854 4860 4864 4866 4872 4872 4869 4873 4882 4889 4909 4927 4952 4985 5005 5001 5002 4996 4995 4995 4991 4992 4989 4991 5012 5028 5047 5063 5079 5092 5101 5111 5117 5117 5116 5111 5107 5096 5090 5083 5079 5077 5072 5069 5067 5061 5061 5062 5065 5069 5075 5078 5091 5104 5116 5125 5146 5169 5187 5213 5236 5241 5241 5246 5252 5262 5277 5294 5315 5336 5359 5395 5430 5447 5449 5436 5424 5407 5400 5395 5388 5382 5369 5359 5347 5324 5313 5291 5277 5261 5246 5245 5246 5248 5257 5260 5264 5269 5275 5287
 5313 5344 5375 5388 5390 5389 5392 5398 5397 5392 5380 5366 5349 5326 5306 5273 5246 5217 5177 5149 5103 5072 5068 5080 5079 5046 5011 4972 4949 4929 4902 4887 4857 4834 4825 4823 4821 4827 4828 4834 4832 4835 4839 4843 4841 4846 4855 4854 4855 4851 4855 4859 4866 4867 4870 4874 4877 4877 4879 4880 4886 4895 4917 4947 4969 4976 4975 4972 4977 4975 4972 4970 4980 5001 5032 5054 5072 5088 5098 5102 5111 5118 5120 5120 5104 5101 5089 5085 5077 5076 5070 5066 5059 5056 5053 5056 5057 5063 5066 5072 5080 5089 5094 5105 5116 5131 5148 5172 5195 5222 5251 5263 5261 5261 5267 5274 5291 5310 5325 5346 5371 5400 5437 5464 5463 5454 5439 5426 5411 5403 5399 5392 5377 5364 5348 5331 5313 5301 5286 5267 5253 5255 5253 5259 5262 5268 5274 5277 5288 5294
 5290 5320 5350 5361 5361 5349 5354 5358 5367 5366 5357 5349 5330 5309 5286 5260 5231 5202 5158 5115 5078 5055 5028 5037 5029 5014 4981 4952 4923 4909 4881 4863 4842 4827 4825 4821 4824 4826 4830 4832 4836 4839 4839 4847 4848 4856 4860 4863 4862 4860 4860 4857 4864 4868 4873 4875 4877 4883 4886 4883 4883 4886 4893 4913 4932 4946 4948 4953 4955 4954 4959 4968 4986 5027 5058 5079 5090 5102 5106 5115 5121 5116 5107 5106 5093 5082 5077 5075 5065 5064 5057 5051 5048 5048 5049 5052 5057 5065 5071 5082 5089 5097 5103 5108 5118 5135 5149 5167 5190 5218 5245 5268 5272 5276 5282 5292 5309 5326 5343 5364 5386 5415 5446 5473 5471 5460 5449 5434 5416 5408 5402 5391 5380 5368 5352 5334 5320 5303 5288 5279 5267 5262 5264 5266 5271 5274 5280 5288 5296 5300
 5270 5298 5322 5331 5327 5310 5303 5312 5329 5337 5334 5328 5313 5295 5275 5249 5220 5180 5140 5098 5067 5030 5003 4992 4988 4981 4949 4927 4896 4878 4863 4850 4836 4827 4824 4822 4822 4824 4832 4833 4839 4843 4845 4853 4856 4873 4878 4876 4879 4881 4873 4866 4865 4867 4874 4875 4877 4884 4885 4890 4888 4891 4893 4896 4909 4913 4925 4928 4933 4941 4954 4980 5002 5043 5072 5098 5105 5112 5125 5126 5109 5104 5095 5089 5077 5068 5064 5062 5060 5054 5046 5044 5046 5049 5050 5055 5061 5070 5079 5086 5094 5102 5113 5123 5131 5136 5151 5166 5187 5212 5243 5267 5283 5290 5296 5309 5321 5342 5363 5380 5401 5430 5456 5478 5473 5463 5446 5435 5425 5408 5398 5389 5380 5370 5359 5337 5324 5309 5297 5290 5280 5273 5274 5281 5283 5287 5290 5295 5298 5309
 5237 5268 5289 5300 5296 5284 5268 5263 5277 5299 5308 5309 5296 5280 5265 5247 5210 5183 5144 5095 5052 5013 4986 4973 4960 4943 4930 4903 4881 4867 4852 4849 4835 4825 4823 4825 4825 4832 4834 4833 4842 4847 4855 4865 4883 4895 4906 4911 4910 4896 4894 4889 4877 4871 4870 4879 4883 4885 4887 4889 4893 4897 4897 4897 4898 4903 4908 4914 4929 4939 4965 4982 5016 5065 5081 5094 5100 5099 5109 5111 5102 5092 5087 5071 5061 5055 5052 5050 5049 5043 5041 5043 5044 5047 5050 5060 5065 5075 5082 5091 5103 5110 5119 5132 5142 5150 5158 5169 5188 5215 5243 5266 5282 5292 5306 5323 5332 5354 5375 5391 5417 5450 5473 5479 5473 5464 5452 5440 5423 5412 5397 5389 5379 5373 5355 5349 5336 5325 5308 5301 5293 5287 5288 5288 5294 5297 5298 5298 5303 5308
 5211 5230 5253 5262 5266 5255 5238 5223 5237 5261 5277 5285 5284 5263 5248 5230 5208 5174 5138 5077 5049 5008 4970 4948 4940 4923 4910 4890 4870 4859 4849 4835 4826 4824 4824 4825 4833 4835 4839 4843 4846 4849 4863 4876 4894 4923 4946 4957 4954 4946 4934 4918 4913 4897 4884 4878 4883 4885 4884 4889 4895 4898 4899 4900 4905 4905 4907 4910 4918 4938 4959 4985 5019 5061 5067 5082 5083 5082 5080 5081 5076 5071 5067 5059 5047 5044 5040 5038 5035 5038 5040 5041 5044 5050 5057 5063 5071 5081 5090 5096 5107 5119 5135 5148 5157 5169 5172 5185 5203 5227 5253 5275 5286 5298 5311 5323 5335 5364 5385 5399 5419 5449 5467 5479 5476 5469 5457 5442 5430 5415 5408 5395 5390 5379 5371 5358 5347 5336 5322 5313 5309 5300 5297 5302 5300 5302 5306 5316 5314 5317
 5176 5196 5215 5224 5229 5226 5211 5188 5199 5221 5252 5267 5257 5246 5232 5215 5189 5157 5115 5075 5036 4997 4956 4932 4920 4910 4896 4883 4865 4849 4836 4828 4826 4828 4825 4832 4833 4835 4842 4846 4853 4860 4866 4881 4904 4938 4973 4997 5002 4995 4978 4964 4940 4928 4909 4898 4891 4889 4887 4889 4895 4900 4901 4902 4911 4910 4914 4910 4915 4929 4944 4975 5003 5026 5052 5064 5067 5068 5065 5064 5059 5060 5050 5039 5032 5029 5032 5033 5033 5037 5041 5044 5049 5057 5060 5072 5076 5089 5094 5106 5115 5125 5144 5159 5171 5182 5200 5207 5220 5240 5261 5277 5290 5301 5309 5323 5335 5354 5373 5393 5407 5427 5443 5460 5469 5467 5458 5449 5435 5420 5410 5400 5395 5385 5378 5366 5356 5346 5335 5324 5320 5314 5307 5308 5313 5320 5319 5323 5330 5326
 5139 5155 5171 5181 5194 5192 5179 5151 5162 5194 5221 5240 5234 5228 5213 5194 5167 5135 5102 5051 5025 4983 4941 4924 4908 4895 4882 4871 4854 4834 4827 4828 4826 4827 4827 4835 4836 4839 4842 4852 4859 4866 4870 4885 4905 4936 4974 5014 5033 5035 5020 5001 4978 4963 4941 4926 4914 4900 4892 4891 4897 4900 4902 4909 4911 4915 4912 4920 4917 4922 4935 4958 4977 5003 5021 5037 5053 5053 5053 5049 5046 5038 5030 5027 5029 5029 5030 5033 5032 5034 5040 5046 5053 5059 5067 5076 5082 5092 5102 5113 5126 5135 5153 5170 5183 5197 5215 5233 5237 5252 5269 5283 5293 5301 5308 5319 5328 5341 5358 5374 5388 5403 5423 5437 5452 5456 5451 5442 5430 5418 5411 5405 5398 5390 5385 5379 5367 5356 5348 5333 5328 5322 5317 5319 5326 5334 5339 5338 5342 5346
 5108 5120 5132 5139 5141 5145 5143 5125 5134 5167 5203 5220 5220 5204 5190 5173 5144 5121 5076 5037 5003 4954 4927 4909 4894 4880 4871 4857 4840 4828 4827 4826 4827 4831 4828 4832 4837 4843 4850 4856 4862 4870 4881 4892 4912 4937 4969 5007 5039 5067 5059 5042 5029 5013 4986 4969 4949 4941 4915 4908 4902 4902 4907 4912 4911 4914 4919 4922 4923 4923 4931 4952 4968 4984 5000 5022 5026 5039 5039 5034 5024 5023 5021 5023 5027 5030 5030 5031 5032 5038 5044 5050 5055 5063 5073 5081 5089 5101 5110 5120 5131 5144 5163 5179 5186 5207 5231 5250 5258 5266 5277 5290 5297 5302 5308 5313 5318 5327 5339 5357 5376 5389 5403 5420 5428 5434 5435 5433 5425 5414 5406 5399 5393 5394 5387 5378 5369 5360 5352 5342 5344 5336 5331 5331 5333 5342 5349 5353 5356 5359
 5067 5086 5089 5095 5102 5097 5091 5090 5127 5154 5185 5204 5199 5175 5165 5150 5123 5091 5048 5011 4986 4940 4916 4892 4883 4872 4860 4842 4831 4825 4826 4828 4828 4829 4828 4833 4841 4844 4848 4856 4864 4870 4881 4900 4916 4939 4961 5001 5038 5072 5093 5087 5070 5048 5024 5009 4995 4977 4953 4940 4920 4910 4911 4912 4915 4919 4921 4925 4931 4927 4930 4942 4957 4976 4991 5006 5014 5021 5023 5017 5013 5014 5018 5023 5027 5031 5031 5031 5035 5042 5049 5057 5061 5071 5076 5085 5094 5106 5116 5127 5142 5153 5171 5185 5198 5219 5251 5267 5276 5279 5287 5292 5292 5294 5300 5303 5309 5314 5325 5343 5356 5367 5378 5397 5406 5412 5415 5414 5413 5403 5395 5388 5384 5383 5379 5376 5370 5364 5360 5354 5350 5346 5342 5343 5342 5350 5359 5365 5370 5373
 5030 5049 5055 5053 5049 5055 5067 5092 5124 5147 5167 5174 5173 5160 5140 5118 5088 5058 5018 4988 4953 4920 4902 4884 4866 4851 4840 4830 4830 4828 4832 4827 4827 4831 4833 4836 4845 4850 4853 4860 4866 4878 4884 4900 4920 4933 4956 5001 5034 5072 5106 5126 5116 5086 5070 5049 5032 5013 4992 4971 4950 4938 4920 4917 4919 4919 4923 4924 4935 4937 4935 4939 4953 4957 4980 4988 5003 5007 5006 5003 5009 5012 5017 5022 5026 5028 5030 5036 5039 5046 5052 5059 5064 5075 5081 5089 5102 5113 5125 5134 5148 5161 5180 5193 5209 5233 5261 5276 5287 5283 5286 5280 5282 5283 5287 5293 5297 5302 5313 5324 5336 5348 5361 5373 5382 5389 5392 5393 5393 5387 5385 5379 5377 5376 5374 5367 5367 5366 5365 5362 5358 5353 5354 5354 5355 5360 5368 5372 5381 5385
 5010 5016 5021 5019 5019 5046 5086 5115 5136 5131 5148 5147 5141 5125 5107 5088 5055 5029 4988 4961 4923 4897 4881 4862 4847 4838 4832 4831 4833 4827 4826 4830 4831 4829 4835 4845 4852 4861 4863 4866 4873 4878 4887 4898 4915 4936 4954 4999 5034 5061 5107 5137 5132 5115 5096 5081 5058 5035 5011 4989 4967 4954 4938 4925 4926 4922 4925 4930 4938 4939 4940 4942 4947 4947 4971 4977 4984 4989 4996 4999 5009 5011 5017 5020 5026 5028 5038 5047 5049 5056 5061 5065 5072 5077 5088 5097 5109 5117 5129 5143 5155 5169 5184 5200 5215 5242 5267 5284 5285 5279 5276 5272 5273 5276 5279 5281 5285 5292 5298 5305 5318 5334 5343 5351 5357 5370 5374 5378 5379 5371 5371 5370 5366 5364 5363 5362 5360 5363 5367 5367 5364 5363 5360 5363 5367 5367 5374 5382 5386 5396
 4990 4994 4990 5000 5028 5057 5101 5125 5136 5130 5123 5120 5114 5098 5076 5050 5025 4992 4960 4927 4907 4878 4863 4847 4832 4833 4831 4831 4833 4831 4834 4835 4829 4841 4846 4852 4864 4867 4866 4873 4878 4884 4891 4898 4911 4933 4965 4996 5026 5062 5094 5128 5149 5137 5117 5097 5071 5046 5024 5006 4990 4973 4965 4950 4945 4935 4931 4932 4936 4936 4944 4946 4950 4952 4960 4970 4977 4989 4994 5001 5005 5020 5022 5023 5029 5029 5042 5050 5057 5062 5069 5072 5080 5087 5092 5102 5113 5126 5137 5150 5164 5175 5189 5201 5222 5242 5264 5273 5272 5269 5264 5261 5262 5265 5271 5274 5276 5281 5284 5295 5307 5318 5328 5336 5339 5349 5359 5360 5361 5356 5357 5354 5357 5356 5355 5353 5353 5357 5362 5366 5367 5366 5369 5370 5370 5374 5376 5384 5392 5402
 4989 4972 4978 5008 5041 5074 5097 5121 5119 5110 5097 5092 5079 5062 5038 5016 4981 4955 4927 4909 4883 4860 4847 4836 4834 4834 4835 4839 4834 4836 4833 4830 4834 4854 4860 4865 4868 4873 4879 4884 4888 4892 4897 4905 4913 4927 4957 4999 5024 5049 5085 5120 5147 5152 5140 5117 5096 5075 5054 5037 5020 5006 4990 4974 4963 4946 4937 4942 4942 4945 4948 4950 4952 4956 4959 4963 4974 4978 4991 4996 5011 5012 5017 5018 5029 5058 5040 5057 5063 5070 5072 5078 5088 5094 5103 5112 5123 5130 5143 5157 5171 5179 5194 5205 5219 5232 5245 5253 5256 5255 5253 5253 5252 5253 5260 5262 5269 5276 5278 5288 5295 5310 5317 5323 5328 5333 5341 5344 5351 5349 5344 5345 5343 5347 5347 5345 5344 5351 5356 5360 5364 5366 5367 5372 5374 5373 5379 5383 5391 5400
 4976 4953 4966 5002 5026 5056 5090 5099 5091 5089 5074 5058 5042 5027 5004 4981 4954 4924 4905 4889 4857 4840 4832 4833 4830 4835 4838 4836 4840 4836 4842 4850 4854 4862 4869 4879 4886 4892 4899 4900 4904 4911 4910 4915 4925 4929 4945 4983 5009 5038 5071 5102 5130 5139 5138 5125 5104 5090 5072 5059 5046 5025 5013 4990 4979 4964 4950 4945 4948 4949 4954 4955 4958 4962 4965 4967 4969 4976 4984 4989 4998 5005 5011 5014 5025 5028 5039 5050 5058 5070 5077 5086 5097 5100 5114 5121 5129 5140 5147 5161 5173 5185 5194 5203 5211 5220 5225 5237 5242 5240 5239 5241 5242 5244 5248 5253 5261 5267 5274 5281 5289 5299 5303 5309 5314 5317 5323 5328 5332 5334 5334 5332 5334 5336 5338 5336 5337 5344 5349 5355 5361 5361 5364 5366 5368 5372 5378 5381 5386 5394
 4961 4924 4938 4976 5004 5033 5069 5077 5070 5063 5046 5029 5006 4986 4971 4953 4926 4907 4888 4867 4844 4832 4833 4832 4836 4838 4838 4840 4838 4842 4847 4848 4866 4869 4874 4881 4896 4911 4912 4922 4925 4931 4952 4952 4954 4949 4948 4963 4997 5029 5056 5088 5112 5135 5140 5129 5117 5097 5083 5066 5059 5041 5025 5013 4990 4975 4964 4953 4959 4956 4957 4961 4961 4963 4969 4970 4973 4975 4982 4984 4992 5002 5013 5024 5024 5035 5037 5054 5058 5066 5078 5095 5103 5114 5124 5130 5138 5143 5150 5159 5171 5180 5185 5193 5196 5201 5207 5220 5226 5226 5225 5229 5236 5237 5240 5250 5257 5265 5269 5279 5286 5293 5294 5295 5301 5303 5308 5311 5319 5323 5323 5322 5324 5325 5325 5323 5333 5342 5346 5350 5354 5353 5356 5359 5361 5363 5369 5372 5378 5385
 4954 4903 4912 4952 4982 5012 5040 5051 5046 5036 5020 4999 4977 4949 4935 4923 4903 4880 4858 4845 4837 4837 4832 4834 4835 4836 4837 4842 4841 4847 4853 4856 4867 4877 4892 4904 4916 4926 4934 4945 4961 4970 4989 5003 4995 4993 4992 4977 4996 5016 5041 5078 5108 5130 5145 5138 5125 5110 5097 5085 5070 5053 5041 5023 4997 4989 4975 4963 4960 4966 4963 4962 4965 4967 4970 4972 4975 4984 4985 4990 4993 4998 5003 5009 5022 5029 5040 5051 5055 5065 5076 5089 5103 5112 5121 5128 5131 5139 5148 5155 5162 5170 5174 5179 5187 5190 5191 5201 5206 5208 5214 5222 5229 5228 5237 5243 5253 5261 5268 5277 5286 5287 5282 5282 5287 5292 5296 5298 5303 5303 5309 5312 5312 5313 5315 5320 5326 5336 5340 5343 5346 5343 5345 5348 5350 5353 5360 5364 5371 5374
 4956 4912 4897 4932 4964 4995 5013 5028 5022 5013 5000 4976 4952 4928 4907 4890 4877 4859 4842 4837 4838 4834 4836 4836 4835 4838 4839 4841 4843 4847 4854 4858 4862 4877 4898 4915 4932 4939 4948 4972 4993 5013 5032 5035 5041 5033 5018 5009 5018 5031 5049 5073 5101 5118 5139 5147 5142 5128 5115 5098 5082 5068 5050 5036 5013 4998 4981 4974 4973 4972 4972 4971 4973 4973 4976 4984 4983 4987 4990 4992 4995 5000 5006 5009 5015 5021 5034 5042 5052 5061 5068 5081 5095 5103 5111 5117 5124 5132 5139 5145 5153 5161 5163 5174 5176 5180 5179 5184 5191 5204 5207 5212 5213 5224 5232 5239 5247 5258 5263 5270 5272 5271 5265 5269 5272 5275 5282 5286 5289 5291 5295 5297 5298 5300 5307 5312 5320 5328 5329 5331 5334 5331 5331 5335 5338 5342 5348 5352 5361 5368
 4945 4908 4885 4916 4940 4963 4982 4998 4997 4990 4976 4958 4930 4903 4881 4867 4850 4840 4837 4840 4837 4838 4838 4837 4839 4841 4842 4844 4854 4851 4857 4865 4864 4881 4898 4919 4933 4951 4965 4993 5023 5051 5064 5068 5064 5058 5053 5049 5055 5062 5062 5081 5104 5122 5146 5162 5152 5140 5125 5116 5099 5093 5076 5050 5029 5012 4990 4982 4974 4977 4982 4979 4975 4978 4980 4986 4990 4992 4993 4994 5001 5006 5007 5011 5014 5019 5024 5032 5044 5052 5064 5076 5087 5095 5103 5113 5118 5125 5130 5134 5146 5148 5157 5159 5163 5167 5173 5171 5180 5187 5193 5199 5205 5213 5220 5226 5233 5241 5243 5251 5256 5253 5251 5254 5256 5259 5260 5267 5270 5274 5279 5284 5284 5292 5298 5303 5312 5317 5315 5317 5319 5317 5317 5322 5325 5329 5337 5345 5351 5361
 4930 4924 4877 4894 4915 4942 4953 4962 4964 4959 4948 4923 4901 4882 4865 4847 4840 4841 4840 4840 4840 4837 4840 4838 4840 4844 4848 4855 4863 4863 4865 4868 4872 4877 4895 4921 4932 4950 4978 5015 5054 5071 5088 5094 5094 5096 5092 5092 5094 5096 5096 5100 5111 5136 5157 5181 5183 5172 5162 5147 5134 5116 5080 5059 5038 5018 4993 4987 4988 4990 4994 4988 4990 4985 4986 4990 4993 4993 4995 4998 5005 5005 5009 5016 5020 5023 5023 5029 5032 5037 5049 5066 5078 5091 5099 5102 5112 5119 5120 5125 5128 5136 5143 5150 5151 5152 5158 5162 5167 5178 5180 5186 5192 5198 5206 5210 5212 5217 5222 5227 5230 5238 5240 5240 5243 5241 5242 5249 5253 5261 5263 5262 5269 5275 5282 5290 5293 5300 5302 5303 5300 5301 5305 5308 5311 5319 5325 5333 5343 5350
 4927 4910 4883 4877 4895 4912 4923 4930 4936 4925 4912 4889 4870 4855 4846 4842 4839 4843 4839 4841 4840 4839 4839 4842 4848 4852 4868 4877 4879 4874 4880 4876 4877 4886 4894 4915 4938 4961 4985 5027 5061 5081 5108 5117 5116 5120 5129 5126 5137 5134 5136 5135 5135 5146 5171 5195 5213 5210 5193 5181 5158 5133 5099 5072 5039 5017 4995 4996 4998 5001 5003 5003 5004 5003 4996 4993 4996 4998 5000 5006 5007 5014 5021 5017 5025 5027 5032 5034 5041 5044 5043 5055 5065 5076 5087 5093 5100 5105 5109 5113 5121 5125 5130 5142 5146 5143 5144 5148 5152 5157 5167 5172 5176 5179 5183 5191 5196 5198 5201 5205 5216 5222 5229 5231 5231 5230 5231 5232 5234 5240 5244 5249 5256 5263 5268 5274 5277 5281 5283 5284 5285 5287 5289 5294 5300 5309 5316 5324 5335 5341
