ncols        150
nrows        50
xllcorner    86.874583333333
yllcorner    28.000416666667
cellsize     0.000833333333
NODATA_value -32768
 6000 6000 6000 6000 5920 5836 5746 5700 5696 5696 5682 5683 5682 5681 5683 5681 5674 5668 5675 5683 5740 5802 5857 5912 5950 5990 6036 6060 6080 6090 6102 6109 6130 6160 6197 6233 6297 6337 6476 6496 6414 6358 6320 6318 6320 6321 6321 6310 6306 6296 6282 6269 6271 6275 6280 6303 6331 6351 6367 6376 6382 6403 6427 6502 6536 6579 6631 6696 6752 6783 6796 6756 6710 6639 6576 6519 6440 6386 6359 6351 6318 6313 6273 6243 6248 6261 6262 6263 6265 6263 6263 6265 6262 6263 6307 6354 6399 6434 6472 6496 6507 6509 6553 6613 6678 6762 6775 6787 6755 6719 6694 6664 6660 6648 6653 6626 6593 6550 6534 6521 6514 6504 6483 6470 6444 6417 6384 6365 6342 6336 6325 6314 6297 6280 6258 6239 6221 6210 6207 6189 6165 6145 6122 6107 6098 6097 6086 6073 6060 6043
 6000 6000 5962 5906 5854 5798 5741 5708 5709 5706 5693 5691 5691 5685 5687 5691 5690 5680 5673 5687 5755 5824 5881 5933 5982 6011 6018 6032 6032 6032 6034 6058 6090 6114 6141 6186 6257 6332 6456 6498 6424 6354 6321 6327 6328 6333 6330 6333 6327 6310 6289 6280 6282 6288 6296 6309 6325 6359 6371 6379 6390 6399 6412 6426 6452 6514 6600 6658 6746 6780 6802 6785 6742 6682 6636 6569 6509 6438 6408 6374 6335 6323 6282 6264 6265 6267 6265 6269 6269 6270 6269 6268 6268 6271 6288 6320 6354 6388 6422 6430 6435 6457 6490 6557 6629 6724 6756 6806 6793 6759 6750 6720 6724 6737 6717 6685 6657 6628 6601 6574 6565 6544 6527 6469 6436 6409 6384 6376 6352 6326 6319 6303 6288 6278 6276 6257 6229 6194 6174 6161 6149 6133 6118 6098 6094 6088 6076 6068 6054 6036
 6000 5972 5922 5870 5812 5772 5734 5711 5716 5710 5700 5696 5696 5687 5687 5692 5692 5690 5687 5696 5762 5835 5885 5952 5980 5984 5998 6002 6000 5987 5995 6022 6052 6078 6121 6146 6347 6343 6490 6514 6446 6375 6339 6332 6337 6343 6347 6344 6337 6322 6305 6297 6295 6302 6315 6327 6334 6355 6374 6385 6392 6406 6410 6445 6464 6515 6580 6656 6751 6782 6806 6811 6795 6741 6684 6631 6558 6490 6447 6415 6359 6336 6297 6279 6271 6272 6276 6272 6275 6277 6276 6278 6277 6281 6289 6297 6320 6354 6380 6390 6406 6419 6454 6514 6600 6680 6774 6795 6807 6800 6793 6774 6782 6784 6791 6759 6722 6686 6663 6642 6613 6610 6591 6511 6465 6421 6400 6378 6356 6343 6325 6309 6300 6290 6282 6264 6234 6177 6157 6138 6132 6122 6114 6101 6089 6084 6068 6059 6048 6040
 5966 5910 5828 5788 5770 5742 5726 5719 5723 5715 5704 5702 5700 5697 5692 5699 5705 5693 5693 5716 5775 5843 5904 5930 5943 5940 5948 5942 5957 5982 6010 6030 6071 6086 6103 6151 6192 6332 6496 6508 6489 6413 6358 6341 6345 6357 6355 6354 6354 6352 6364 6331 6316 6323 6332 6341 6348 6362 6375 6394 6407 6421 6464 6515 6546 6568 6607 6699 6743 6788 6817 6844 6832 6795 6732 6680 6604 6527 6484 6464 6411 6352 6311 6292 6281 6279 6278 6274 6284 6282 6283 6281 6283 6290 6290 6300 6318 6336 6362 6368 6377 6412 6474 6493 6587 6666 6716 6753 6770 6778 6792 6803 6848 6854 6840 6826 6810 6766 6749 6717 6687 6675 6633 6578 6538 6470 6419 6389 6373 6357 6338 6323 6313 6303 6290 6256 6220 6158 6136 6129 6121 6115 6114 6097 6089 6082 6072 6063 6061 6049
 5924 5819 5777 5766 5755 5744 5725 5722 5721 5715 5710 5703 5702 5702 5706 5709 5709 5706 5704 5718 5778 5833 5884 5891 5896 5889 5896 5924 5955 5990 6021 6049 6085 6107 6124 6146 6198 6316 6462 6542 6534 6467 6382 6353 6353 6361 6373 6378 6385 6396 6405 6420 6429 6418 6405 6381 6377 6385 6406 6430 6462 6485 6521 6563 6589 6611 6639 6692 6751 6796 6829 6876 6867 6831 6782 6724 6638 6556 6506 6475 6432 6361 6321 6299 6289 6288 6292 6284 6292 6288 6291 6289 6287 6292 6294 6301 6310 6322 6330 6349 6388 6446 6497 6545 6604 6676 6716 6740 6755 6776 6792 6833 6862 6936 6924 6878 6852 6830 6804 6784 6779 6734 6695 6628 6593 6539 6492 6437 6394 6371 6356 6343 6333 6322 6308 6236 6184 6140 6125 6123 6119 6116 6111 6104 6098 6089 6080 6073 6065 6055
 5856 5827 5806 5767 5754 5734 5726 5726 5721 5714 5711 5707 5704 5704 5707 5707 5709 5704 5708 5723 5774 5818 5839 5861 5865 5867 5873 5899 5942 6005 6050 6081 6084 6125 6165 6240 6312 6388 6500 6613 6617 6521 6469 6407 6377 6384 6402 6415 6412 6414 6427 6442 6465 6468 6451 6440 6439 6448 6460 6518 6536 6567 6589 6611 6620 6647 6683 6723 6767 6811 6851 6891 6908 6858 6826 6774 6680 6577 6528 6471 6420 6372 6333 6304 6300 6297 6296 6292 6295 6298 6296 6295 6292 6295 6298 6310 6308 6317 6351 6403 6452 6513 6544 6597 6640 6678 6692 6714 6739 6758 6773 6802 6852 6881 6960 6938 6916 6896 6876 6854 6828 6804 6753 6700 6654 6603 6573 6525 6482 6444 6445 6428 6401 6367 6306 6240 6193 6146 6136 6120 6119 6116 6114 6108 6102 6094 6084 6076 6076 6076
 5867 5839 5813 5776 5742 5728 5723 5719 5716 5718 5713 5712 5708 5705 5705 5715 5714 5702 5709 5715 5748 5792 5813 5821 5835 5852 5861 5888 5962 6011 6050 6124 6155 6188 6254 6318 6380 6472 6572 6646 6681 6616 6568 6483 6432 6418 6427 6433 6435 6441 6469 6483 6500 6501 6496 6490 6494 6508 6548 6573 6612 6621 6660 6666 6684 6695 6734 6763 6792 6837 6866 6900 6932 6920 6860 6804 6718 6624 6537 6461 6415 6366 6332 6314 6310 6305 6309 6301 6295 6296 6294 6293 6294 6299 6305 6316 6322 6353 6392 6441 6493 6542 6591 6638 6650 6649 6639 6666 6684 6692 6719 6749 6794 6828 6868 6850 6834 6822 6810 6800 6804 6784 6748 6726 6696 6672 6659 6625 6586 6532 6520 6480 6449 6415 6354 6239 6197 6150 6133 6128 6127 6120 6117 6110 6107 6096 6094 6094 6097 6114
 5876 5860 5818 5777 5736 5722 5719 5721 5720 5718 5713 5711 5712 5713 5710 5712 5722 5712 5712 5721 5733 5762 5789 5805 5823 5842 5863 5894 5939 6008 6070 6167 6208 6268 6324 6382 6466 6568 6670 6772 6730 6683 6647 6568 6517 6460 6457 6445 6462 6487 6517 6537 6553 6564 6574 6559 6568 6580 6614 6643 6654 6709 6734 6755 6780 6779 6801 6817 6841 6861 6898 6936 6945 6964 6890 6810 6718 6620 6543 6492 6418 6361 6327 6320 6315 6311 6312 6303 6304 6305 6305 6304 6302 6302 6309 6322 6331 6375 6423 6459 6508 6546 6576 6584 6594 6600 6584 6596 6620 6639 6648 6683 6736 6794 6782 6760 6662 6618 6588 6606 6664 6704 6694 6680 6668 6656 6642 6628 6561 6562 6584 6532 6492 6456 6404 6340 6223 6171 6141 6128 6132 6124 6120 6117 6115 6114 6107 6105 6119 6143
 5884 5861 5831 5793 5731 5721 5731 5718 5722 5720 5716 5715 5712 5708 5711 5719 5718 5721 5729 5721 5732 5750 5788 5817 5839 5875 5932 6001 6062 6126 6192 6242 6290 6338 6384 6490 6608 6692 6774 6846 6805 6845 6732 6642 6596 6538 6524 6510 6521 6542 6573 6602 6634 6655 6645 6642 6631 6654 6673 6717 6757 6773 6796 6809 6823 6842 6848 6869 6887 6902 6929 6966 6983 6976 6898 6810 6716 6616 6549 6488 6430 6362 6338 6326 6321 6314 6314 6308 6304 6308 6309 6309 6304 6309 6314 6327 6350 6370 6405 6432 6460 6494 6500 6517 6536 6553 6556 6561 6577 6608 6627 6654 6692 6714 6726 6660 6583 6538 6492 6492 6522 6552 6596 6582 6564 6548 6530 6512 6500 6487 6486 6484 6480 6458 6422 6369 6327 6236 6177 6149 6139 6137 6129 6128 6133 6129 6138 6137 6151 6157
 5897 5880 5854 5808 5768 5731 5728 5715 5723 5723 5725 5723 5721 5719 5716 5724 5733 5722 5727 5741 5748 5776 5830 5854 5901 5971 6007 6086 6160 6232 6300 6374 6436 6506 6572 6644 6724 6802 6866 6902 6901 6911 6831 6739 6658 6623 6583 6592 6597 6621 6660 6684 6709 6725 6726 6720 6736 6764 6785 6797 6825 6829 6845 6856 6871 6878 6892 6905 6931 6951 6969 6997 7011 6968 6872 6782 6692 6600 6540 6480 6429 6358 6343 6339 6322 6320 6311 6306 6309 6311 6309 6311 6312 6314 6320 6332 6350 6374 6401 6425 6438 6456 6474 6480 6503 6514 6531 6548 6576 6612 6632 6658 6705 6753 6658 6578 6539 6442 6373 6384 6384 6412 6390 6322 6326 6368 6372 6386 6400 6358 6406 6394 6382 6370 6326 6286 6368 6330 6294 6256 6218 6155 6141 6139 6151 6141 6156 6169 6182 6175
 5907 5897 5857 5827 5789 5747 5725 5725 5731 5722 5727 5723 5723 5726 5729 5734 5729 5727 5734 5738 5761 5813 5875 5935 5950 6028 6069 6222 6288 6354 6422 6496 6566 6640 6712 6788 6838 6888 6936 6960 6960 6938 6894 6829 6769 6717 6718 6695 6684 6697 6723 6750 6768 6783 6801 6797 6805 6820 6849 6854 6871 6876 6891 6899 6917 6933 6948 6963 6988 7004 7027 7038 7000 6916 6824 6750 6662 6575 6506 6464 6381 6358 6358 6349 6329 6320 6316 6308 6315 6313 6311 6318 6319 6321 6333 6346 6355 6375 6405 6427 6444 6459 6468 6477 6485 6499 6516 6536 6568 6608 6648 6695 6736 6709 6594 6520 6444 6354 6328 6287 6244 6223 6254 6221 6228 6244 6246 6248 6262 6276 6274 6262 6256 6252 6230 6165 6192 6178 6166 6148 6150 6150 6150 6148 6156 6165 6151 6179 6209 6241
 5917 5896 5872 5841 5804 5756 5735 5730 5732 5731 5738 5736 5732 5735 5743 5745 5748 5731 5730 5739 5755 5793 5850 5911 5966 6008 6049 6106 6154 6204 6308 6416 6524 6624 6696 6770 6842 6920 6978 7010 6987 6971 6932 6887 6839 6747 6762 6766 6743 6776 6801 6810 6817 6819 6833 6844 6864 6871 6891 6903 6909 6922 6938 6950 6957 6977 7003 7012 7036 7049 7063 7034 6932 6874 6747 6715 6620 6557 6503 6450 6377 6370 6366 6365 6353 6336 6326 6318 6323 6322 6319 6328 6324 6330 6339 6347 6360 6374 6403 6426 6439 6457 6467 6481 6489 6497 6518 6535 6568 6639 6683 6750 6761 6624 6556 6494 6430 6370 6302 6258 6210 6177 6159 6135 6134 6134 6142 6154 6154 6152 6150 6136 6134 6132 6116 6047 6086 6070 6056 6050 6056 6066 6073 6073 6074 6084 6094 6098 6146 6181
 5914 5899 5884 5850 5814 5775 5751 5740 5737 5741 5741 5739 5741 5743 5743 5756 5764 5746 5745 5755 5773 5787 5834 5896 5921 5963 5985 5996 6074 6166 6272 6392 6494 6600 6668 6740 6812 6898 6978 7044 7042 7012 6972 6944 6919 6908 6874 6856 6836 6848 6852 6855 6851 6859 6877 6896 6909 6926 6945 6950 6959 6975 6979 7022 7052 7032 7054 7074 7092 7062 7025 6927 6852 6794 6675 6630 6587 6532 6475 6409 6390 6380 6378 6378 6373 6363 6345 6332 6335 6329 6326 6329 6338 6336 6346 6352 6363 6376 6404 6425 6434 6450 6463 6477 6483 6503 6531 6564 6611 6668 6733 6764 6724 6612 6544 6480 6414 6356 6294 6239 6187 6148 6115 6088 6081 6056 6064 6096 6064 6043 6036 6014 6000 5996 5992 5971 5971 5960 5960 5962 5972 5962 5987 5996 5974 6005 6020 6040 6065 6095
 5908 5895 5879 5846 5810 5782 5769 5758 5748 5751 5748 5740 5747 5752 5761 5766 5770 5770 5771 5771 5787 5822 5861 5892 5918 5937 5958 5980 6016 6148 6252 6370 6462 6554 6638 6722 6804 6890 6974 7062 7088 7063 7031 7019 6973 6964 6950 6934 6918 6923 6904 6893 6885 6900 6916 6934 6957 6973 6993 7019 7021 7034 7059 7070 7081 7090 7086 7074 7036 7009 6924 6846 6774 6727 6625 6592 6553 6486 6416 6401 6388 6391 6396 6386 6386 6377 6361 6346 6343 6338 6338 6336 6340 6343 6347 6351 6359 6375 6405 6423 6432 6444 6454 6474 6509 6538 6568 6610 6664 6711 6762 6748 6712 6626 6548 6476 6400 6340 6278 6209 6163 6108 6069 6068 6059 6028 5997 5998 5992 5983 5952 5932 5924 5932 5918 5911 5858 5888 5880 5890 5900 5894 5887 5903 5892 5915 5951 5965 5996 6031
 5890 5884 5861 5839 5809 5790 5779 5765 5763 5759 5753 5755 5757 5759 5766 5773 5778 5778 5780 5778 5796 5825 5853 5894 5916 5943 5963 5977 6006 6136 6242 6346 6442 6540 6632 6724 6814 6908 7000 7092 7186 7148 7107 7091 7072 7054 7032 7014 7000 6987 6960 6942 6940 6944 6948 6969 6990 7017 7041 7097 7108 7124 7119 7132 7137 7112 7058 7015 6971 6870 6807 6758 6707 6662 6626 6573 6500 6452 6411 6402 6406 6403 6403 6394 6391 6381 6369 6360 6354 6350 6341 6342 6343 6346 6352 6355 6365 6373 6397 6417 6433 6447 6488 6528 6563 6591 6624 6678 6730 6763 6764 6746 6722 6628 6558 6474 6390 6322 6250 6190 6140 6101 6064 6046 6037 6013 5982 5964 5955 5943 5924 5910 5899 5878 5851 5845 5826 5805 5800 5806 5796 5795 5809 5823 5818 5825 5875 5887 5924 5959
 5880 5871 5856 5835 5814 5802 5788 5781 5772 5765 5757 5765 5765 5772 5779 5781 5785 5785 5784 5783 5788 5819 5861 5876 5916 5950 5973 5981 6015 6140 6228 6314 6394 6514 6628 6742 6846 6952 7052 7154 7250 7221 7183 7176 7156 7138 7118 7100 7080 7051 7030 7032 7026 7020 7009 7035 7053 7087 7111 7138 7158 7160 7161 7123 7085 7051 7028 6966 6890 6803 6729 6674 6629 6603 6564 6496 6450 6426 6412 6413 6410 6407 6410 6403 6400 6384 6380 6363 6360 6353 6351 6345 6353 6358 6359 6362 6366 6376 6385 6404 6447 6499 6549 6588 6609 6657 6685 6725 6767 6759 6750 6750 6737 6636 6558 6458 6372 6310 6244 6184 6121 6077 6041 6010 5992 5995 5979 5965 5956 5948 5924 5908 5895 5860 5817 5812 5802 5785 5778 5769 5764 5758 5755 5750 5762 5758 5769 5770 5827 5891
 5879 5868 5849 5830 5819 5802 5797 5789 5778 5772 5766 5767 5770 5776 5790 5784 5791 5793 5787 5785 5801 5816 5854 5879 5921 5947 5971 5990 6013 6154 6242 6330 6416 6526 6626 6720 6814 6968 7084 7194 7324 7323 7269 7270 7258 7248 7238 7214 7194 7170 7152 7142 7132 7122 7112 7098 7120 7134 7164 7175 7142 7099 7060 7049 7027 7005 6953 6904 6744 6702 6652 6605 6569 6536 6510 6469 6458 6437 6423 6423 6414 6416 6414 6408 6405 6394 6378 6370 6368 6362 6358 6362 6355 6357 6360 6366 6371 6385 6392 6409 6440 6498 6544 6586 6622 6666 6710 6753 6759 6745 6741 6738 6722 6683 6564 6460 6372 6310 6246 6190 6134 6051 6012 5992 5980 5981 5974 5965 5952 5940 5899 5887 5870 5841 5812 5806 5795 5789 5787 5764 5756 5746 5737 5729 5723 5722 5723 5733 5744 5782
 5901 5882 5859 5837 5819 5806 5793 5786 5782 5779 5767 5777 5788 5788 5787 5795 5797 5800 5796 5792 5795 5836 5870 5877 5925 5930 5959 5991 6104 6214 6290 6368 6472 6604 6680 6760 6852 6970 7070 7168 7340 7381 7329 7340 7330 7320 7304 7286 7272 7258 7242 7236 7228 7218 7208 7161 7173 7183 7148 7102 7068 7024 6983 6962 6907 6913 6876 6816 6737 6623 6608 6538 6515 6508 6489 6480 6476 6467 6441 6430 6428 6422 6422 6413 6413 6402 6390 6374 6368 6372 6368 6367 6369 6365 6363 6368 6377 6392 6402 6407 6427 6458 6499 6553 6600 6633 6672 6713 6734 6728 6727 6725 6716 6694 6600 6502 6406 6344 6276 6212 6132 6045 6001 5990 5983 5975 5974 5968 5959 5937 5894 5856 5849 5837 5830 5815 5805 5786 5773 5760 5747 5740 5729 5713 5697 5701 5705 5709 5717 5732
 5990 5958 5929 5904 5835 5804 5790 5791 5796 5786 5786 5800 5801 5795 5801 5805 5804 5803 5801 5799 5804 5845 5872 5911 5940 5956 6007 6034 6172 6258 6328 6406 6542 6656 6746 6846 6942 7028 7090 7150 7250 7460 7436 7429 7401 7392 7363 7356 7338 7320 7310 7298 7292 7286 7258 7223 7185 7099 7064 7027 6980 6930 6906 6884 6863 6825 6794 6745 6691 6585 6530 6526 6510 6493 6489 6487 6485 6479 6470 6448 6442 6436 6435 6432 6415 6403 6394 6387 6381 6371 6372 6372 6370 6370 6371 6373 6383 6398 6406 6417 6418 6447 6462 6496 6540 6588 6636 6675 6709 6705 6700 6700 6702 6689 6620 6552 6458 6386 6306 6232 6158 6038 6003 5986 5985 5984 5964 5956 5947 5913 5870 5837 5851 5837 5840 5828 5819 5797 5773 5755 5743 5738 5710 5688 5675 5686 5678 5681 5688 5701
 6060 6046 5991 5960 5897 5839 5807 5794 5787 5797 5799 5808 5813 5818 5807 5813 5808 5815 5811 5811 5820 5843 5909 5974 6019 6047 6123 6220 6266 6324 6378 6500 6638 6766 6856 6938 7010 7070 7128 7184 7254 7322 7396 7479 7456 7438 7454 7440 7420 7400 7386 7372 7305 7257 7204 7167 7121 7086 7001 6956 6883 6861 6811 6795 6791 6771 6721 6689 6607 6550 6546 6530 6507 6497 6495 6492 6487 6475 6475 6462 6450 6451 6448 6439 6426 6417 6406 6395 6387 6382 6378 6381 6377 6375 6374 6375 6386 6400 6414 6420 6428 6440 6450 6479 6516 6554 6588 6652 6681 6687 6682 6685 6690 6694 6671 6583 6506 6443 6338 6264 6178 6051 6007 5996 5989 5976 5964 5958 5936 5913 5884 5859 5849 5847 5846 5836 5818 5802 5784 5761 5736 5713 5679 5661 5661 5660 5671 5676 5671 5673
 6148 6154 6094 6030 5954 5865 5839 5804 5810 5813 5812 5812 5815 5821 5825 5832 5824 5821 5822 5823 5837 5860 5890 5944 5997 6053 6115 6174 6235 6386 6506 6638 6760 6842 6900 6960 7014 7062 7106 7152 7200 7240 7282 7324 7366 7406 7454 7496 7516 7486 7444 7400 7318 7203 7148 7105 7043 7009 6936 6878 6826 6756 6732 6719 6715 6711 6686 6644 6574 6559 6548 6534 6521 6500 6494 6493 6488 6476 6468 6460 6464 6453 6459 6440 6434 6425 6412 6401 6394 6390 6383 6377 6379 6379 6378 6382 6387 6397 6409 6421 6436 6440 6446 6469 6488 6514 6551 6621 6650 6667 6664 6678 6686 6695 6691 6650 6552 6489 6393 6312 6250 6091 6041 6011 5997 5984 5967 5947 5931 5907 5885 5872 5861 5851 5849 5841 5823 5800 5782 5748 5715 5684 5660 5655 5658 5657 5656 5656 5653 5646
 6200 6200 6150 6068 5986 5888 5861 5836 5820 5826 5824 5823 5832 5841 5834 5824 5830 5835 5842 5847 5855 5861 5876 5907 5942 5998 6059 6122 6188 6246 6480 6664 6804 6848 6890 6934 6974 7018 7056 7094 7126 7140 7158 7178 7218 7272 7328 7382 7430 7480 7436 7364 7298 7218 7152 7082 6998 6950 6905 6823 6710 6692 6682 6681 6680 6664 6652 6605 6574 6571 6559 6550 6526 6510 6505 6496 6489 6481 6472 6465 6459 6457 6450 6448 6438 6427 6420 6404 6400 6395 6391 6387 6385 6380 6381 6387 6392 6401 6411 6421 6425 6443 6448 6461 6484 6499 6535 6594 6620 6648 6652 6674 6681 6691 6710 6716 6676 6578 6504 6432 6329 6254 6099 6059 6035 6005 5973 5936 5930 5898 5873 5867 5864 5856 5847 5836 5812 5787 5758 5728 5685 5658 5650 5643 5649 5648 5640 5634 5634 5626
 6200 6200 6162 6068 5943 5910 5877 5846 5834 5830 5836 5833 5834 5842 5840 5831 5841 5843 5842 5851 5869 5876 5883 5890 5908 5934 5998 6081 6157 6216 6380 6608 6760 6828 6866 6906 6944 6984 7014 7040 7058 7064 7068 7094 7158 7208 7236 7264 7320 7396 7392 7334 7278 7214 7146 7074 6998 6938 6868 6767 6701 6677 6663 6655 6652 6646 6630 6604 6585 6585 6576 6565 6545 6520 6511 6504 6506 6483 6465 6462 6460 6455 6452 6449 6442 6433 6423 6419 6404 6396 6397 6387 6392 6392 6392 6396 6403 6404 6419 6434 6440 6456 6464 6460 6474 6494 6525 6568 6609 6623 6660 6671 6683 6703 6736 6779 6770 6670 6558 6490 6418 6342 6260 6153 6115 6056 6000 5933 5909 5886 5871 5878 5875 5857 5848 5829 5796 5764 5736 5716 5691 5662 5646 5643 5647 5645 5642 5635 5617 5615
 6200 6200 6166 6066 5951 5921 5895 5871 5842 5837 5846 5848 5849 5846 5847 5841 5850 5842 5851 5862 5871 5882 5887 5890 5901 5920 5946 6002 6095 6151 6196 6440 6526 6634 6800 6834 6868 6904 6938 6974 6996 6990 6986 6996 7040 7084 7128 7172 7236 7318 7352 7302 7254 7204 7138 7068 7000 6922 6848 6739 6693 6671 6655 6641 6643 6635 6623 6608 6597 6591 6581 6571 6559 6535 6517 6515 6504 6483 6471 6454 6450 6452 6453 6445 6442 6435 6425 6418 6411 6407 6403 6408 6413 6418 6424 6414 6415 6423 6431 6442 6455 6462 6468 6474 6476 6491 6511 6540 6561 6615 6655 6666 6679 6714 6749 6792 6793 6761 6586 6526 6464 6404 6328 6254 6178 6108 6036 5935 5897 5883 5883 5881 5860 5854 5842 5821 5787 5742 5708 5689 5678 5675 5657 5647 5648 5641 5636 5629 5621 5606
 6200 6200 6164 6058 5965 5937 5921 5891 5859 5848 5850 5855 5858 5854 5853 5845 5844 5849 5851 5861 5871 5882 5887 5892 5893 5907 5930 5956 6023 6090 6145 6300 6394 6546 6654 6744 6804 6822 6842 6872 6892 6894 6898 6910 6940 6954 7026 7126 7224 7290 7320 7286 7244 7198 7132 7062 7000 6920 6842 6745 6699 6659 6647 6642 6634 6631 6622 6616 6603 6602 6594 6579 6566 6544 6528 6529 6517 6504 6487 6458 6454 6449 6447 6442 6443 6446 6437 6434 6432 6434 6447 6478 6496 6491 6481 6473 6463 6455 6453 6460 6469 6474 6474 6479 6483 6491 6493 6508 6537 6586 6635 6671 6681 6715 6760 6786 6734 6721 6594 6538 6476 6420 6356 6296 6232 6158 6068 5982 5904 5883 5879 5867 5866 5850 5833 5808 5791 5756 5712 5681 5678 5682 5667 5649 5647 5643 5632 5620 5621 5612
 6200 6200 6158 6070 5980 5963 5942 5924 5890 5860 5862 5862 5861 5862 5854 5852 5850 5857 5857 5859 5869 5881 5891 5896 5901 5909 5914 5931 5971 6037 6112 6158 6220 6472 6548 6644 6768 6768 6748 6774 6800 6804 6812 6824 6852 6836 6920 7060 7214 7256 7280 7260 7230 7194 7130 7062 7006 6926 6846 6762 6716 6670 6645 6637 6633 6629 6622 6617 6616 6612 6602 6588 6577 6555 6549 6538 6535 6528 6514 6495 6461 6457 6451 6453 6456 6456 6466 6463 6478 6484 6520 6550 6563 6554 6559 6534 6512 6491 6490 6485 6479 6482 6480 6481 6487 6495 6501 6502 6520 6559 6601 6637 6656 6705 6678 6676 6648 6614 6558 6490 6418 6380 6346 6314 6294 6238 6164 6038 5964 5919 5895 5876 5866 5856 5833 5817 5791 5750 5707 5684 5684 5687 5665 5651 5639 5632 5623 5623 5613 5606
 6200 6200 6182 6090 5999 5978 5969 5930 5896 5876 5865 5864 5866 5870 5865 5863 5854 5859 5860 5859 5875 5880 5893 5902 5904 5911 5912 5920 5944 5979 6074 6128 6173 6342 6430 6530 6626 6648 6652 6668 6686 6704 6722 6738 6756 6742 6808 6990 7170 7170 7228 7228 7186 7152 7124 7064 7016 6942 6860 6760 6731 6696 6647 6636 6631 6630 6626 6628 6622 6614 6605 6594 6577 6564 6549 6546 6555 6550 6537 6526 6514 6503 6502 6495 6493 6489 6502 6512 6527 6546 6588 6621 6658 6644 6608 6605 6597 6565 6549 6522 6510 6498 6492 6490 6494 6500 6504 6512 6520 6544 6571 6603 6628 6600 6584 6578 6542 6502 6462 6422 6370 6314 6252 6198 6200 6200 6206 6190 6114 6034 5966 5911 5881 5863 5840 5813 5789 5741 5689 5687 5685 5677 5670 5655 5633 5620 5610 5606 5594 5594
 6200 6200 6176 6104 6011 5987 5969 5946 5899 5876 5872 5870 5874 5874 5872 5866 5863 5868 5861 5866 5874 5881 5893 5904 5907 5916 5915 5924 5944 5981 6010 6081 6144 6260 6324 6392 6426 6460 6490 6520 6554 6584 6606 6626 6646 6650 6750 6848 6930 7022 7204 7200 7084 7030 7098 7070 7026 6970 6888 6800 6751 6703 6650 6644 6637 6639 6631 6631 6629 6627 6611 6605 6590 6573 6564 6564 6568 6563 6554 6550 6546 6541 6541 6535 6533 6542 6541 6556 6591 6632 6675 6705 6732 6734 6708 6686 6652 6626 6600 6584 6564 6529 6513 6502 6502 6506 6503 6509 6512 6529 6547 6542 6542 6524 6504 6448 6400 6400 6360 6312 6262 6214 6164 6114 6070 6028 6008 6054 6094 6128 6086 6052 5990 5925 5859 5817 5783 5758 5732 5695 5684 5680 5666 5639 5616 5607 5602 5591 5571 5568
 6200 6200 6146 6090 6014 5989 5970 5948 5907 5882 5878 5879 5877 5875 5877 5873 5874 5874 5869 5866 5881 5892 5907 5911 5921 5924 5919 5926 5949 5976 6004 6026 6071 6214 6304 6400 6418 6436 6454 6474 6492 6510 6530 6548 6568 6586 6620 6686 6756 6824 6894 6914 6890 6904 6976 7020 7038 7014 6958 6860 6784 6731 6682 6664 6654 6637 6639 6640 6633 6628 6619 6616 6602 6593 6584 6579 6576 6571 6574 6576 6585 6595 6603 6603 6602 6604 6618 6648 6671 6703 6735 6795 6798 6820 6800 6778 6752 6724 6694 6630 6611 6578 6561 6528 6518 6508 6499 6497 6494 6492 6486 6480 6470 6446 6422 6381 6302 6204 6206 6182 6142 6102 6060 6022 5972 5930 5922 5964 6004 6032 6058 6068 6026 5998 5917 5860 5794 5768 5736 5713 5679 5668 5660 5618 5575 5580 5583 5570 5544 5538
 6200 6154 6100 6020 5995 5980 5967 5941 5915 5890 5886 5883 5881 5881 5880 5883 5882 5886 5883 5884 5898 5912 5925 5930 5930 5931 5931 5936 5959 5986 5998 6006 6017 6092 6214 6242 6268 6296 6322 6350 6376 6400 6434 6466 6500 6532 6566 6598 6630 6662 6696 6728 6762 6796 6854 6918 6980 7028 7016 6942 6843 6772 6721 6691 6677 6663 6658 6647 6634 6636 6632 6625 6614 6608 6599 6598 6604 6603 6607 6607 6617 6624 6643 6664 6682 6685 6701 6728 6741 6773 6816 6860 6894 6904 6882 6860 6836 6814 6786 6742 6694 6619 6612 6568 6537 6527 6492 6471 6445 6436 6426 6414 6400 6356 6329 6254 6166 6115 6060 6034 5996 5950 5904 5858 5810 5802 5828 5776 5904 5942 5980 5988 5992 5996 5978 5919 5842 5781 5745 5718 5694 5667 5648 5600 5571 5557 5552 5542 5524 5517
 6152 6104 6010 6000 5984 5977 5955 5939 5915 5904 5896 5893 5890 5883 5888 5886 5889 5890 5898 5905 5913 5929 5943 5945 5944 5945 5942 5949 5957 5980 5998 6009 6013 6037 6196 6220 6242 6264 6286 6308 6330 6352 6374 6396 6420 6444 6470 6494 6520 6544 6568 6592 6652 6728 6800 6864 6924 6990 7004 6961 6898 6829 6792 6740 6721 6695 6681 6648 6652 6645 6639 6641 6634 6630 6626 6621 6630 6640 6631 6639 6649 6662 6694 6719 6737 6756 6789 6815 6841 6871 6889 6925 6956 6990 6976 6948 6904 6852 6796 6704 6660 6609 6582 6558 6506 6496 6464 6419 6387 6347 6326 6300 6276 6254 6228 6210 6085 6037 6008 5925 5874 5818 5760 5738 5741 5732 5722 5725 5727 5718 5727 5787 5848 5885 5930 5954 5857 5785 5738 5698 5669 5648 5646 5622 5574 5543 5520 5511 5507 5497
 6112 6014 5998 5983 5979 5964 5945 5935 5920 5914 5906 5900 5896 5893 5891 5891 5893 5894 5902 5913 5936 5949 5959 5964 5964 5967 5967 5968 5977 5986 5996 5999 6023 6045 6080 6194 6216 6240 6262 6286 6310 6332 6356 6378 6402 6426 6450 6474 6500 6524 6550 6574 6598 6654 6710 6770 6836 6916 7003 7016 6965 6925 6882 6831 6792 6754 6737 6692 6682 6727 6673 6656 6660 6661 6666 6664 6666 6666 6670 6684 6712 6726 6776 6790 6811 6836 6867 6875 6915 6937 6958 6980 7044 7048 7018 6970 6896 6818 6726 6634 6586 6554 6540 6495 6448 6423 6406 6374 6333 6255 6252 6234 6218 6202 6146 6073 6024 5941 5877 5813 5755 5749 5731 5714 5705 5704 5695 5695 5688 5680 5679 5699 5740 5770 5803 5843 5915 5891 5751 5695 5661 5630 5614 5613 5584 5547 5515 5502 5496 5486
 6007 5998 5990 5986 5975 5959 5943 5933 5925 5922 5914 5907 5905 5900 5895 5896 5896 5900 5912 5922 5943 5959 5968 5975 5983 5993 5996 6004 6000 6007 6017 6027 6034 6060 6118 6166 6188 6194 6216 6242 6270 6296 6324 6350 6376 6412 6440 6466 6494 6520 6548 6574 6602 6644 6686 6730 6770 6834 6930 7014 7027 7016 6959 6921 6890 6870 6799 6786 6760 6762 6722 6702 6708 6749 6752 6756 6753 6747 6745 6757 6780 6803 6834 6870 6877 6904 6920 6945 6979 6990 7022 7040 7091 7080 7018 6916 6806 6728 6646 6578 6518 6468 6499 6457 6386 6367 6340 6280 6232 6209 6145 6140 6108 6076 6042 6009 5929 5882 5813 5784 5744 5718 5711 5710 5703 5701 5694 5694 5684 5674 5666 5656 5652 5655 5678 5740 5827 5886 5875 5784 5689 5652 5617 5594 5580 5552 5533 5506 5488 5463
 6000 6000 5989 5976 5966 5954 5938 5934 5927 5927 5918 5917 5912 5908 5908 5901 5911 5917 5927 5933 5940 5965 5981 5989 6004 6008 6014 6020 6028 6035 6048 6056 6080 6082 6098 6148 6170 6174 6185 6196 6224 6252 6282 6312 6342 6388 6426 6458 6492 6524 6556 6588 6624 6664 6700 6738 6776 6832 6910 6990 7052 7092 7058 7011 6979 6952 6893 6865 6850 6830 6801 6795 6787 6794 6811 6817 6850 6830 6825 6824 6861 6885 6922 6943 6942 6982 6987 7024 7057 7085 7105 7126 7137 7070 7000 6866 6754 6674 6588 6506 6418 6382 6358 6334 6310 6286 6256 6200 6162 6112 6063 6036 5996 5972 5944 5918 5803 5765 5769 5755 5733 5728 5718 5710 5704 5701 5694 5693 5683 5671 5661 5648 5639 5625 5618 5633 5703 5792 5878 5856 5776 5686 5644 5604 5584 5570 5557 5533 5499 5468
 6004 5995 5985 5971 5961 5948 5940 5934 5933 5931 5925 5921 5921 5914 5920 5927 5927 5948 5958 5956 5965 5972 5991 6008 6016 6026 6030 6031 6028 6048 6055 6076 6095 6107 6111 6119 6143 6143 6157 6171 6192 6214 6246 6276 6306 6350 6390 6420 6468 6512 6560 6602 6640 6680 6718 6758 6796 6852 6924 6994 7063 7109 7132 7113 7094 7040 7002 6964 6948 6930 6880 6894 6862 6864 6878 6891 6913 6911 6948 6917 6942 6974 7021 7029 7039 7056 7048 7091 7118 7148 7177 7191 7142 7048 6960 6848 6746 6656 6564 6476 6394 6356 6318 6278 6240 6200 6168 6130 6106 6031 5994 5938 5916 5892 5858 5804 5775 5762 5754 5751 5742 5737 5732 5724 5720 5711 5706 5692 5681 5673 5655 5641 5628 5606 5594 5598 5611 5692 5738 5832 5815 5759 5699 5645 5592 5565 5553 5567 5544 5501
 6005 5998 5988 5976 5960 5949 5948 5940 5938 5933 5934 5929 5933 5925 5939 5949 6074 6033 5999 5979 5987 5996 6005 6019 6027 6030 6032 6044 6050 6060 6074 6089 6102 6112 6125 6133 6137 6140 6135 6154 6167 6186 6216 6242 6268 6312 6354 6378 6410 6474 6544 6606 6652 6700 6744 6792 6823 6891 6938 7021 7079 7148 7182 7185 7152 7139 7108 7076 7042 7012 7000 7000 7000 6990 6956 6967 6971 7008 7042 7026 7032 7076 7068 7095 7125 7156 7143 7188 7191 7217 7239 7218 7114 7012 6910 6800 6718 6638 6554 6474 6392 6340 6286 6230 6178 6128 6080 6030 5990 5958 5928 5898 5874 5850 5815 5801 5770 5764 5760 5755 5751 5750 5740 5735 5721 5715 5705 5694 5678 5659 5650 5636 5616 5602 5593 5583 5577 5599 5664 5711 5815 5807 5782 5733 5677 5637 5631 5609 5574 5533
 6007 5999 5990 5980 5967 5962 5948 5953 5948 5950 5940 5938 5945 5958 6070 6114 6156 6073 6026 6005 6001 6011 6014 6014 6044 6043 6045 6051 6050 6060 6074 6085 6107 6109 6122 6126 6130 6136 6135 6150 6155 6175 6191 6219 6235 6262 6322 6354 6386 6444 6524 6600 6664 6734 6800 6844 6884 6924 7009 7049 7119 7177 7228 7257 7221 7240 7194 7149 7129 7104 7082 7088 7094 7082 7064 7038 7056 7063 7128 7120 7113 7144 7119 7226 7201 7241 7243 7261 7260 7291 7256 7188 7064 6950 6840 6752 6672 6598 6534 6472 6408 6344 6278 6212 6150 6084 6024 5976 5942 5885 5864 5858 5838 5817 5796 5779 5768 5766 5763 5765 5762 5756 5748 5736 5724 5713 5697 5692 5667 5646 5626 5616 5607 5596 5582 5577 5571 5562 5586 5645 5712 5758 5723 5724 5740 5718 5684 5653 5621 5586
 5998 5999 5993 5991 5975 5969 5969 5973 5965 5962 5962 6006 6050 6096 6142 6188 6214 6145 6069 6026 6010 6017 6029 6035 6033 6038 6055 6055 6061 6066 6078 6087 6099 6107 6115 6120 6125 6127 6137 6153 6164 6178 6182 6202 6224 6249 6293 6336 6382 6446 6522 6596 6676 6760 6828 6888 6944 7001 7040 7103 7155 7208 7257 7308 7284 7314 7288 7242 7200 7178 7164 7176 7190 7180 7164 7154 7126 7208 7210 7220 7238 7257 7274 7291 7278 7317 7316 7340 7344 7350 7250 7164 7044 6938 6832 6738 6640 6572 6518 6468 6414 6342 6260 6178 6102 6024 5972 5924 5887 5861 5848 5842 5820 5801 5786 5776 5778 5769 5769 5764 5758 5756 5747 5737 5723 5705 5691 5675 5638 5614 5586 5585 5582 5583 5574 5560 5560 5551 5559 5584 5658 5702 5682 5666 5671 5703 5716 5701 5662 5628
 5991 5989 5992 5999 5991 5987 5989 5992 5985 5983 6034 6078 6120 6162 6208 6266 6281 6203 6162 6208 6031 6019 6030 6041 6046 6049 6053 6054 6063 6067 6074 6091 6101 6106 6114 6124 6139 6144 6154 6157 6168 6178 6188 6199 6224 6251 6290 6344 6396 6462 6532 6600 6680 6764 6838 6910 6978 7016 7089 7146 7188 7260 7301 7353 7378 7400 7404 7376 7336 7298 7268 7272 7284 7286 7274 7260 7276 7290 7259 7287 7306 7329 7338 7369 7368 7388 7400 7419 7438 7388 7276 7176 7056 6946 6838 6740 6636 6556 6482 6412 6342 6276 6212 6134 6060 5992 5954 5906 5880 5862 5845 5838 5835 5815 5802 5799 5786 5785 5777 5770 5766 5761 5746 5737 5725 5704 5671 5645 5609 5565 5544 5538 5546 5553 5553 5545 5536 5537 5541 5547 5595 5638 5674 5642 5620 5626 5657 5670 5684 5653
 5961 5979 5995 6007 6010 6010 6015 6011 6016 6054 6092 6130 6168 6210 6280 6348 6359 6306 6230 6282 6256 6230 6039 6048 6061 6076 6064 6063 6076 6074 6074 6090 6100 6103 6111 6127 6155 6159 6185 6174 6179 6184 6202 6222 6230 6256 6289 6364 6432 6496 6562 6630 6704 6784 6862 6944 7016 7065 7123 7177 7224 7292 7348 7392 7421 7424 7404 7442 7442 7418 7398 7372 7378 7390 7388 7364 7370 7374 7330 7360 7387 7423 7459 7464 7452 7483 7510 7542 7476 7404 7298 7194 7074 6958 6838 6740 6644 6564 6488 6416 6344 6270 6196 6116 6038 5980 5945 5889 5865 5855 5848 5850 5833 5833 5810 5811 5806 5800 5787 5781 5767 5765 5749 5735 5710 5695 5654 5623 5572 5528 5493 5481 5504 5518 5518 5514 5515 5515 5516 5513 5541 5602 5633 5649 5622 5596 5596 5603 5630 5659
 5944 5978 5999 6016 6033 6027 6024 6032 6040 6090 6136 6184 6242 6312 6384 6426 6443 6407 6352 6293 6310 6278 6246 6214 6186 6160 6132 6074 6081 6091 6096 6098 6110 6116 6130 6147 6183 6193 6202 6220 6209 6202 6223 6252 6269 6271 6354 6406 6476 6542 6612 6676 6742 6812 6890 6974 7038 7096 7148 7206 7254 7320 7376 7429 7480 7480 7485 7524 7534 7506 7478 7472 7500 7498 7486 7464 7460 7460 7442 7420 7462 7498 7534 7547 7555 7561 7578 7583 7512 7402 7290 7180 7072 6968 6856 6756 6656 6574 6508 6444 6372 6290 6210 6116 6024 5971 5930 5886 5861 5855 5857 5846 5833 5834 5825 5817 5805 5799 5794 5792 5775 5770 5760 5746 5712 5684 5636 5595 5558 5519 5481 5463 5463 5470 5483 5476 5473 5485 5474 5474 5496 5539 5576 5610 5635 5601 5576 5570 5589 5629
 5953 5983 6013 6035 6052 6050 6057 6068 6126 6172 6228 6308 6384 6426 6460 6494 6529 6481 6432 6402 6372 6366 6346 6328 6308 6290 6272 6252 6232 6238 6246 6248 6242 6244 6246 6318 6344 6330 6316 6293 6258 6258 6278 6312 6331 6374 6418 6478 6540 6600 6658 6716 6772 6850 6938 7018 7072 7128 7178 7237 7289 7345 7409 7465 7519 7544 7569 7608 7616 7598 7558 7576 7612 7602 7586 7570 7554 7538 7520 7512 7557 7589 7637 7640 7662 7665 7635 7620 7514 7394 7260 7154 7062 6970 6864 6766 6670 6580 6492 6410 6336 6266 6196 6100 6010 5961 5929 5892 5869 5853 5844 5845 5844 5832 5824 5819 5802 5799 5798 5791 5781 5774 5760 5747 5708 5640 5608 5567 5531 5510 5478 5461 5449 5449 5455 5447 5443 5439 5440 5430 5452 5492 5529 5569 5620 5614 5578 5550 5568 5604
 5917 5981 5999 6034 6055 6069 6086 6176 6212 6272 6330 6390 6434 6476 6520 6560 6579 6566 6526 6492 6447 6434 6418 6400 6382 6362 6342 6320 6300 6304 6310 6314 6316 6322 6352 6426 6436 6401 6432 6453 6411 6384 6389 6417 6460 6496 6532 6568 6610 6664 6722 6776 6842 6918 6992 7052 7104 7155 7200 7264 7334 7377 7441 7488 7544 7610 7653 7660 7662 7648 7628 7644 7666 7656 7644 7632 7620 7608 7598 7594 7612 7655 7699 7722 7734 7744 7718 7636 7538 7420 7280 7164 7070 6980 6872 6770 6668 6576 6492 6414 6340 6270 6200 6098 6000 5954 5928 5889 5868 5862 5855 5845 5844 5842 5828 5821 5806 5796 5797 5797 5788 5779 5777 5745 5694 5623 5587 5540 5506 5489 5469 5456 5448 5443 5443 5438 5434 5431 5430 5429 5424 5449 5486 5538 5583 5614 5576 5552 5550 5570
 5877 5927 5972 6031 6068 6091 6166 6214 6264 6316 6366 6424 6490 6556 6612 6640 6655 6658 6619 6579 6536 6501 6476 6454 6430 6400 6390 6378 6366 6370 6374 6380 6386 6402 6444 6490 6457 6469 6490 6486 6495 6471 6475 6522 6552 6580 6612 6656 6702 6744 6790 6854 6924 7000 7042 7088 7140 7195 7245 7306 7364 7414 7464 7526 7590 7643 7699 7710 7710 7698 7694 7704 7722 7714 7706 7698 7688 7680 7672 7668 7672 7700 7751 7786 7810 7817 7734 7678 7604 7456 7282 7160 7080 7004 6900 6800 6690 6590 6512 6440 6362 6290 6216 6116 6016 5930 5902 5883 5868 5855 5854 5843 5836 5845 5864 5819 5846 5792 5790 5803 5800 5795 5773 5748 5670 5594 5525 5501 5479 5472 5465 5449 5441 5436 5436 5432 5433 5427 5428 5426 5428 5437 5468 5501 5554 5598 5573 5550 5551 5562
 5867 5914 5957 6010 6083 6104 6180 6238 6296 6356 6418 6498 6572 6624 6668 6708 6730 6748 6696 6650 6597 6554 6537 6506 6488 6474 6458 6444 6446 6466 6484 6502 6520 6538 6556 6576 6539 6556 6562 6583 6598 6612 6636 6660 6684 6708 6734 6756 6782 6816 6902 6982 7036 7066 7094 7124 7176 7242 7290 7339 7403 7452 7519 7564 7630 7686 7746 7762 7760 7746 7756 7766 7776 7778 7772 7766 7760 7752 7746 7740 7733 7751 7786 7825 7825 7750 7708 7676 7642 7556 7338 7180 7112 7046 6962 6856 6760 6682 6600 6518 6424 6348 6274 6196 6084 5988 5966 5954 5944 5934 5922 5912 5904 5906 5910 5908 5908 5906 5890 5868 5842 5818 5792 5748 5662 5586 5509 5473 5451 5454 5447 5437 5431 5429 5422 5421 5422 5422 5425 5427 5420 5421 5451 5482 5551 5587 5571 5541 5544 5548
 5892 5920 5973 6045 6105 6156 6208 6274 6336 6404 6502 6602 6646 6690 6736 6780 6802 6780 6755 6704 6641 6608 6565 6556 6548 6542 6532 6524 6530 6544 6558 6574 6588 6602 6622 6642 6642 6644 6658 6676 6694 6712 6730 6748 6766 6784 6808 6862 6920 6976 7022 7064 7101 7141 7131 7154 7212 7275 7327 7383 7433 7489 7550 7612 7669 7726 7775 7831 7814 7794 7828 7877 7876 7862 7866 7872 7858 7844 7830 7816 7788 7824 7838 7835 7755 7706 7668 7620 7570 7536 7500 7350 7200 7130 7052 6966 6852 6758 6674 6592 6512 6436 6366 6296 6230 6146 6060 5998 5990 5980 5972 5962 5956 5962 5970 5982 5992 6000 5996 5970 5918 5868 5816 5754 5668 5606 5547 5476 5457 5443 5438 5435 5425 5422 5422 5414 5416 5418 5412 5423 5414 5410 5429 5458 5509 5558 5566 5535 5514 5509
 5900 5943 5989 6071 6108 6182 6248 6318 6384 6522 6620 6664 6706 6750 6794 6836 6847 6841 6815 6752 6702 6649 6616 6611 6606 6610 6602 6600 6610 6624 6638 6652 6666 6680 6694 6708 6714 6720 6738 6756 6776 6796 6815 6836 6856 6904 6972 7012 7038 7062 7098 7159 7187 7203 7213 7246 7275 7341 7384 7438 7478 7533 7608 7669 7706 7768 7816 7878 7938 7902 7920 7934 7956 7958 7980 8000 7978 7952 7926 7920 7922 7881 7869 7763 7694 7663 7600 7547 7478 7454 7424 7396 7356 7258 7154 7058 6928 6788 6708 6630 6568 6522 6476 6426 6358 6260 6172 6114 6108 6094 6072 6050 6036 6042 6060 6100 6104 6082 6056 6030 6002 5916 5820 5692 5649 5604 5540 5501 5458 5436 5432 5423 5419 5413 5408 5411 5406 5412 5402 5410 5411 5403 5403 5436 5476 5527 5551 5520 5483 5460
 5902 5970 6040 6096 6130 6220 6290 6362 6468 6608 6660 6710 6758 6804 6846 6884 6922 6900 6865 6811 6765 6736 6713 6688 6694 6694 6684 6672 6672 6676 6692 6708 6724 6742 6758 6774 6786 6798 6818 6850 6866 6882 6898 6912 6950 6976 7032 7064 7081 7132 7175 7200 7231 7273 7292 7331 7361 7400 7440 7488 7524 7592 7657 7711 7756 7799 7865 7935 7988 8033 8000 8006 8030 8057 8068 8090 8068 8042 8020 7982 7950 7879 7806 7723 7642 7586 7525 7499 7453 7384 7360 7330 7298 7264 7230 7156 7026 6876 6768 6710 6650 6588 6508 6422 6368 6320 6276 6244 6252 6256 6250 6230 6210 6190 6166 6200 6196 6146 6094 6044 5984 5906 5822 5738 5650 5574 5508 5476 5451 5433 5418 5413 5409 5404 5403 5404 5398 5404 5403 5393 5408 5400 5394 5406 5442 5482 5503 5498 5461 5429
 5854 5964 6085 6129 6195 6258 6332 6422 6562 6648 6704 6758 6810 6852 6894 6932 6971 6951 6907 6864 6832 6798 6781 6762 6774 6782 6764 6744 6734 6730 6756 6782 6804 6824 6844 6864 6882 6902 6922 6930 6944 6958 6976 6992 7022 7049 7098 7136 7180 7194 7226 7284 7308 7324 7355 7396 7424 7459 7498 7522 7599 7667 7708 7744 7788 7855 7924 7970 8025 8080 8068 8082 8099 8120 8156 8190 8162 8053 8028 7953 7906 7838 7737 7675 7584 7531 7468 7427 7380 7328 7311 7258 7232 7194 7148 7090 7030 6958 6862 6776 6696 6620 6570 6524 6482 6436 6400 6400 6400 6400 6402 6360 6334 6312 6288 6254 6206 6154 6100 6050 5996 5910 5718 5668 5630 5533 5499 5477 5461 5442 5428 5411 5404 5402 5400 5394 5392 5395 5399 5393 5391 5397 5395 5387 5400 5421 5434 5439 5424 5401
 5854 5968 6093 6177 6233 6298 6386 6484 6616 6690 6746 6802 6864 6904 6944 6974 7000 7006 6967 6933 6904 6876 6852 6857 6852 6826 6838 6810 6795 6782 6802 6830 6872 6882 6908 6936 6962 6990 7008 7012 7067 7042 7064 7062 7102 7158 7160 7214 7254 7269 7304 7339 7355 7388 7414 7444 7501 7535 7580 7604 7654 7715 7754 7792 7827 7924 7970 8015 8098 8132 8139 8160 8194 8220 8216 8213 8163 8065 7994 7911 7795 7729 7681 7632 7544 7481 7440 7391 7328 7270 7207 7192 7178 7130 7082 7038 6988 6924 6856 6792 6728 6668 6608 6578 6554 6528 6504 6478 6454 6440 6400 6368 6346 6336 6326 6296 6200 6150 6092 6030 5964 5900 5834 5744 5610 5540 5510 5486 5482 5463 5437 5413 5394 5397 5396 5393 5385 5384 5396 5392 5385 5381 5375 5382 5376 5378 5384 5382 5374 5364
