ncols        150
nrows        100
xllcorner    -72.125416666667
yllcorner    -48.082916666667
cellsize     0.000833333333
NODATA_value -32768
 1745 1738 1732 1715 1697 1679 1661 1638 1626 1617 1612 1614 1606 1592 1584 1574 1562 1544 1524 1500 1471 1450 1430 1422 1431 1428 1412 1394 1383 1370 1353 1344 1340 1343 1354 1366 1363 1336 1307 1287 1274 1270 1275 1280 1283 1273 1256 1237 1218 1199 1177 1161 1141 1124 1112 1102 1095 1088 1076 1064 1063 1079 1093 1108 1128 1141 1140 1135 1131 1132 1128 1127 1123 1121 1121 1117 1111 1105 1096 1086 1074 1060 1047 1030 1018 1016 1017 1016 1015 1015 1013 1013 1011 1009 1008 1004 1002 998 996 996 998 1003 1002 998 993 988 987 989 989 985 979 968 958 955 963 968 967 969 973 975 977 975 971 965 960 952 942 934 929 926 924 922 920 918 918 918 917 915 914 912 911 913 917 917 914 908 905 904 904 902
 1810 1788 1762 1740 1720 1704 1690 1676 1662 1652 1653 1655 1648 1628 1610 1593 1575 1561 1542 1516 1490 1465 1450 1441 1435 1428 1416 1404 1395 1383 1369 1359 1348 1338 1339 1347 1346 1328 1306 1292 1279 1274 1272 1262 1257 1251 1237 1218 1201 1182 1161 1147 1131 1119 1111 1102 1095 1090 1078 1065 1074 1091 1109 1130 1149 1161 1161 1152 1148 1149 1145 1142 1138 1135 1130 1127 1123 1120 1111 1099 1084 1071 1057 1041 1027 1022 1023 1022 1021 1022 1018 1018 1016 1011 1008 1005 1004 999 995 992 991 992 991 987 983 981 980 981 980 982 982 971 960 956 961 970 972 973 973 975 974 972 968 963 957 948 937 930 928 925 924 924 922 922 923 922 921 919 916 916 918 924 940 946 937 927 916 907 902 901
 1855 1825 1792 1764 1748 1743 1732 1716 1698 1685 1677 1676 1667 1648 1627 1607 1592 1579 1561 1541 1518 1494 1470 1454 1444 1434 1422 1408 1397 1388 1371 1354 1340 1329 1324 1327 1324 1310 1296 1283 1261 1249 1242 1227 1218 1213 1206 1188 1171 1153 1138 1123 1113 1103 1100 1100 1096 1086 1074 1076 1091 1105 1126 1156 1179 1186 1177 1170 1173 1172 1170 1164 1160 1156 1149 1144 1140 1133 1119 1106 1093 1079 1064 1047 1038 1032 1030 1028 1028 1027 1025 1023 1021 1016 1011 1008 1005 1002 998 995 995 991 990 986 985 984 981 978 974 970 970 967 962 959 966 974 975 974 975 975 973 969 963 953 942 933 930 927 926 927 931 934 931 930 931 930 931 927 924 922 923 928 942 950 950 947 940 932 922 911
 1868 1840 1814 1789 1776 1777 1768 1745 1720 1700 1684 1674 1667 1654 1636 1619 1612 1600 1582 1560 1538 1513 1491 1472 1456 1438 1425 1411 1402 1393 1375 1351 1336 1326 1315 1306 1299 1288 1273 1259 1240 1225 1212 1194 1186 1181 1174 1157 1142 1129 1120 1110 1099 1094 1089 1085 1081 1077 1080 1095 1112 1129 1154 1183 1201 1203 1197 1198 1199 1191 1190 1189 1185 1179 1170 1162 1153 1142 1129 1115 1100 1086 1074 1062 1057 1052 1043 1037 1034 1032 1030 1027 1025 1021 1017 1013 1010 1005 999 996 997 997 994 989 994 1001 998 995 985 972 969 973 971 973 979 981 979 977 978 977 970 959 948 938 934 934 935 933 935 940 948 947 940 936 940 945 944 940 936 933 931 928 929 933 933 934 932 929 922 912
 1860 1836 1817 1794 1775 1777 1767 1749 1726 1703 1684 1670 1663 1657 1645 1633 1622 1608 1591 1570 1548 1522 1500 1481 1463 1446 1430 1419 1412 1405 1388 1359 1338 1327 1315 1300 1294 1292 1274 1248 1234 1231 1222 1206 1183 1166 1158 1149 1138 1137 1131 1120 1110 1100 1092 1081 1080 1087 1099 1113 1130 1147 1171 1196 1211 1220 1226 1228 1229 1223 1216 1212 1206 1199 1191 1181 1170 1156 1146 1135 1120 1104 1092 1087 1080 1069 1053 1045 1041 1038 1035 1029 1025 1020 1017 1015 1014 1009 1003 1001 1002 1005 1003 1000 1000 1007 1010 1009 1002 996 996 997 996 994 991 989 985 982 979 968 953 943 938 938 944 958 963 961 965 967 964 960 955 950 953 956 953 951 948 944 939 930 923 918 917 912 910 907 904 899
 1843 1820 1796 1772 1751 1749 1749 1742 1727 1704 1681 1667 1659 1657 1648 1632 1617 1605 1588 1569 1547 1525 1504 1484 1465 1449 1435 1424 1417 1413 1403 1378 1346 1325 1311 1298 1295 1296 1282 1262 1260 1261 1252 1232 1208 1188 1173 1165 1164 1159 1144 1130 1117 1101 1090 1085 1095 1107 1119 1130 1146 1167 1193 1219 1231 1239 1248 1251 1248 1241 1234 1226 1215 1206 1197 1188 1180 1169 1159 1148 1132 1119 1108 1097 1085 1072 1061 1056 1055 1055 1049 1040 1035 1029 1023 1024 1023 1019 1012 1009 1009 1011 1009 1007 1005 1007 1010 1012 1011 1009 1008 1007 1003 999 995 993 991 989 978 958 945 941 942 953 968 977 980 979 974 971 971 968 966 964 961 960 959 954 953 950 946 940 932 924 917 911 905 901 897 894
 1817 1794 1771 1749 1726 1720 1724 1725 1715 1695 1672 1654 1647 1645 1638 1622 1608 1595 1581 1564 1544 1524 1503 1486 1467 1451 1438 1425 1416 1410 1401 1381 1356 1330 1313 1307 1312 1314 1298 1287 1285 1275 1260 1240 1221 1203 1189 1181 1172 1158 1141 1128 1113 1105 1098 1091 1098 1120 1137 1150 1168 1190 1214 1230 1240 1251 1259 1264 1263 1256 1247 1236 1226 1216 1205 1194 1188 1178 1165 1154 1140 1123 1109 1097 1086 1076 1070 1069 1072 1070 1063 1056 1048 1041 1035 1033 1031 1028 1024 1020 1020 1020 1016 1013 1011 1012 1010 1010 1013 1013 1013 1011 1009 1008 1005 1004 1003 994 974 953 946 957 971 983 990 990 988 986 981 978 979 980 979 977 974 967 962 957 955 952 949 945 940 933 924 915 909 901 897 894
 1792 1764 1743 1725 1707 1697 1702 1707 1700 1684 1661 1641 1627 1625 1624 1611 1596 1581 1567 1554 1539 1519 1501 1481 1465 1450 1437 1426 1415 1405 1391 1374 1355 1335 1321 1314 1309 1308 1307 1308 1301 1284 1265 1246 1226 1212 1198 1185 1169 1155 1142 1131 1120 1112 1108 1097 1100 1126 1148 1168 1186 1205 1223 1238 1249 1260 1272 1280 1277 1271 1264 1257 1249 1235 1223 1210 1199 1188 1176 1166 1153 1131 1116 1106 1091 1081 1086 1089 1094 1089 1082 1072 1067 1060 1051 1045 1040 1036 1031 1028 1028 1027 1023 1021 1018 1018 1016 1015 1013 1014 1017 1018 1016 1013 1009 1006 1007 991 966 949 955 975 995 1001 1002 1002 1001 996 993 991 990 990 989 988 986 979 972 966 963 957 948 937 927 921 914 909 904 899 897 894
 1776 1749 1726 1705 1690 1679 1687 1689 1684 1668 1646 1627 1611 1605 1610 1601 1587 1574 1559 1546 1531 1513 1497 1477 1460 1446 1435 1425 1414 1400 1387 1375 1361 1348 1336 1323 1312 1310 1312 1315 1309 1292 1273 1253 1234 1214 1195 1182 1167 1152 1141 1129 1119 1114 1107 1100 1107 1132 1158 1181 1199 1217 1236 1253 1267 1283 1291 1294 1291 1286 1280 1275 1266 1256 1242 1231 1213 1197 1184 1175 1164 1149 1133 1118 1102 1101 1111 1114 1114 1107 1101 1090 1083 1075 1064 1055 1054 1048 1042 1039 1038 1035 1033 1035 1031 1029 1025 1021 1018 1015 1014 1015 1015 1013 1009 1006 1003 984 961 951 964 988 1002 1006 1007 1007 1005 1007 1006 1006 1002 999 995 994 991 981 970 963 957 948 938 926 918 912 907 904 902 900 900 898
 1752 1731 1710 1693 1676 1664 1667 1674 1666 1646 1624 1608 1594 1588 1591 1588 1579 1567 1553 1539 1522 1508 1493 1474 1458 1442 1432 1421 1411 1395 1381 1371 1358 1345 1335 1324 1316 1318 1324 1323 1313 1294 1272 1248 1229 1210 1192 1178 1160 1146 1134 1126 1120 1115 1108 1110 1125 1148 1176 1202 1224 1241 1255 1273 1289 1305 1316 1316 1310 1303 1293 1287 1279 1271 1263 1250 1231 1213 1195 1186 1176 1161 1141 1123 1113 1124 1132 1134 1134 1126 1119 1110 1101 1089 1074 1068 1068 1060 1053 1050 1049 1043 1041 1042 1041 1039 1032 1030 1026 1019 1015 1014 1014 1011 1006 1007 999 979 957 956 971 992 1005 1007 1008 1009 1011 1012 1012 1010 1007 1003 999 995 991 980 971 960 952 943 934 926 920 914 911 909 907 905 905 903
 1718 1704 1685 1669 1654 1642 1641 1649 1646 1628 1605 1592 1579 1573 1574 1576 1574 1563 1550 1535 1515 1502 1488 1475 1463 1448 1437 1428 1416 1397 1377 1356 1339 1328 1320 1314 1313 1321 1330 1325 1306 1284 1262 1238 1217 1201 1186 1170 1154 1144 1138 1129 1123 1121 1124 1133 1147 1174 1200 1222 1245 1264 1280 1299 1314 1324 1329 1328 1327 1322 1314 1305 1294 1285 1277 1264 1247 1230 1212 1195 1179 1157 1137 1126 1135 1149 1154 1156 1152 1146 1136 1127 1117 1097 1087 1084 1085 1079 1071 1063 1059 1054 1048 1047 1047 1045 1041 1035 1031 1027 1021 1019 1018 1016 1013 1008 991 967 957 961 974 985 996 1006 1013 1016 1019 1021 1021 1021 1021 1016 1012 1006 1002 994 985 977 970 962 953 946 940 932 922 916 916 914 913 910
 1683 1670 1657 1647 1632 1617 1613 1623 1627 1613 1590 1571 1561 1558 1558 1563 1565 1560 1548 1530 1511 1495 1482 1471 1460 1450 1439 1429 1418 1402 1388 1367 1346 1329 1316 1309 1305 1307 1305 1294 1276 1255 1236 1216 1201 1187 1175 1163 1157 1152 1140 1131 1132 1140 1153 1165 1179 1200 1223 1248 1267 1285 1307 1325 1340 1346 1344 1340 1334 1330 1324 1320 1314 1304 1291 1278 1261 1240 1220 1199 1181 1165 1152 1143 1160 1177 1178 1174 1171 1167 1157 1143 1130 1115 1102 1098 1101 1099 1092 1082 1074 1067 1061 1057 1052 1050 1044 1040 1035 1029 1023 1019 1017 1015 1011 999 976 962 966 983 998 1006 1015 1022 1029 1033 1035 1039 1043 1046 1048 1042 1036 1029 1023 1013 1005 1000 998 994 986 977 968 952 938 929 924 921 920 916
 1673 1649 1630 1621 1612 1598 1588 1595 1602 1599 1585 1564 1549 1545 1543 1545 1548 1543 1534 1519 1502 1486 1474 1466 1457 1449 1440 1430 1423 1418 1404 1385 1362 1339 1320 1314 1314 1321 1321 1309 1286 1265 1248 1231 1210 1198 1184 1172 1163 1153 1142 1142 1149 1158 1169 1180 1197 1222 1253 1272 1287 1304 1322 1338 1349 1353 1353 1351 1348 1343 1334 1326 1321 1315 1305 1288 1271 1252 1235 1220 1202 1189 1173 1162 1180 1200 1200 1191 1186 1178 1166 1152 1135 1124 1118 1120 1124 1119 1112 1101 1088 1080 1073 1068 1063 1057 1050 1045 1037 1030 1024 1019 1017 1011 998 980 965 963 979 1007 1026 1035 1041 1049 1051 1054 1057 1062 1064 1068 1071 1073 1070 1063 1051 1040 1032 1025 1020 1017 1012 999 979 963 947 938 933 929 925 921
 1682 1656 1631 1611 1594 1580 1568 1566 1571 1573 1570 1556 1544 1535 1530 1528 1531 1533 1526 1509 1493 1480 1468 1459 1453 1446 1439 1428 1424 1422 1414 1396 1374 1350 1329 1328 1342 1349 1345 1338 1321 1301 1279 1255 1229 1211 1197 1182 1169 1154 1146 1155 1163 1169 1179 1192 1212 1239 1267 1286 1299 1313 1326 1335 1340 1345 1350 1354 1353 1350 1344 1335 1326 1318 1312 1305 1296 1282 1268 1254 1232 1212 1193 1183 1193 1213 1215 1214 1208 1194 1176 1160 1149 1148 1149 1148 1151 1144 1133 1122 1111 1099 1093 1082 1076 1066 1057 1052 1044 1034 1026 1024 1021 1011 991 974 965 970 993 1021 1035 1043 1051 1059 1065 1069 1074 1081 1083 1085 1087 1090 1093 1091 1084 1072 1063 1056 1049 1040 1024 1004 983 964 953 947 942 935 930 924
 1704 1677 1652 1626 1604 1584 1564 1548 1541 1543 1545 1542 1536 1527 1521 1518 1518 1521 1517 1500 1483 1472 1462 1455 1449 1443 1435 1427 1416 1409 1401 1388 1372 1356 1343 1348 1359 1362 1358 1346 1328 1309 1288 1266 1243 1219 1203 1187 1174 1162 1155 1160 1169 1179 1191 1205 1223 1251 1274 1290 1303 1312 1320 1323 1328 1335 1345 1350 1350 1350 1347 1341 1338 1332 1323 1315 1308 1300 1288 1275 1259 1240 1228 1214 1210 1222 1231 1230 1225 1213 1204 1187 1178 1177 1178 1175 1172 1166 1155 1142 1130 1120 1109 1098 1089 1079 1069 1061 1050 1040 1032 1026 1022 1013 994 979 970 973 994 1019 1035 1045 1056 1066 1074 1080 1086 1094 1097 1097 1098 1099 1103 1107 1108 1103 1093 1084 1075 1065 1046 1027 1003 981 970 958 948 940 933 928
 1727 1701 1675 1649 1618 1593 1572 1553 1539 1527 1520 1519 1516 1514 1508 1505 1502 1498 1492 1480 1468 1457 1451 1448 1442 1436 1431 1422 1409 1398 1389 1376 1364 1354 1350 1356 1359 1359 1354 1339 1324 1308 1285 1264 1243 1223 1206 1192 1180 1174 1173 1177 1177 1186 1201 1216 1233 1258 1276 1291 1300 1305 1307 1310 1318 1330 1345 1348 1342 1340 1340 1340 1337 1336 1333 1327 1319 1310 1303 1291 1280 1269 1258 1250 1243 1240 1238 1237 1232 1227 1223 1214 1206 1199 1197 1194 1190 1182 1175 1164 1152 1141 1128 1115 1104 1091 1080 1068 1059 1049 1040 1031 1023 1021 1009 991 975 974 991 1020 1038 1048 1060 1071 1080 1087 1096 1103 1109 1112 1109 1113 1123 1134 1138 1136 1132 1121 1103 1083 1062 1040 1020 1001 987 968 957 948 941 933
 1747 1719 1690 1660 1629 1605 1585 1569 1552 1532 1517 1507 1499 1490 1486 1483 1482 1473 1459 1449 1441 1435 1433 1435 1432 1427 1423 1416 1407 1401 1388 1370 1355 1350 1352 1357 1369 1373 1360 1341 1324 1304 1283 1261 1239 1224 1211 1198 1192 1189 1190 1193 1194 1195 1207 1225 1242 1260 1276 1286 1290 1294 1297 1304 1314 1331 1346 1347 1337 1332 1332 1333 1332 1331 1331 1330 1328 1320 1310 1302 1292 1283 1277 1270 1261 1256 1249 1245 1239 1233 1226 1222 1221 1220 1216 1210 1205 1199 1192 1186 1175 1162 1150 1135 1120 1102 1090 1076 1063 1054 1046 1035 1027 1024 1017 994 979 976 985 1011 1035 1049 1062 1076 1088 1096 1104 1112 1115 1117 1126 1138 1146 1154 1164 1171 1163 1145 1116 1089 1066 1051 1035 1013 995 978 965 956 950 947
 1768 1735 1709 1683 1658 1636 1616 1596 1570 1545 1525 1514 1500 1486 1473 1461 1463 1456 1436 1421 1413 1412 1415 1423 1425 1418 1415 1412 1407 1391 1376 1360 1348 1344 1343 1353 1373 1386 1374 1355 1333 1307 1286 1265 1246 1229 1218 1210 1207 1204 1204 1208 1212 1213 1217 1227 1239 1254 1265 1272 1279 1287 1295 1304 1321 1341 1350 1347 1340 1334 1330 1328 1326 1324 1323 1324 1325 1325 1322 1314 1305 1296 1290 1286 1279 1272 1266 1260 1255 1246 1235 1226 1225 1224 1223 1217 1211 1202 1199 1199 1191 1179 1167 1149 1131 1112 1095 1082 1072 1060 1051 1043 1034 1022 1008 994 986 980 983 1004 1030 1048 1064 1074 1087 1099 1110 1119 1126 1135 1146 1149 1155 1172 1190 1193 1179 1159 1128 1100 1085 1071 1047 1024 1009 992 983 978 976 973
 1791 1761 1732 1708 1683 1661 1639 1618 1593 1566 1536 1518 1506 1497 1486 1467 1457 1442 1419 1401 1392 1391 1396 1408 1411 1403 1398 1394 1383 1363 1345 1341 1343 1341 1333 1337 1347 1351 1349 1343 1327 1306 1287 1269 1253 1237 1227 1219 1216 1217 1219 1222 1227 1232 1237 1239 1242 1254 1264 1270 1281 1292 1302 1314 1332 1352 1360 1354 1347 1340 1332 1327 1322 1317 1315 1314 1316 1318 1320 1320 1314 1305 1298 1291 1283 1281 1281 1277 1274 1266 1252 1236 1226 1221 1218 1216 1212 1201 1193 1192 1184 1177 1169 1150 1133 1115 1099 1086 1074 1066 1055 1047 1036 1022 1010 1001 996 984 983 1000 1025 1046 1063 1073 1083 1096 1111 1125 1138 1148 1154 1156 1166 1185 1198 1200 1193 1173 1143 1124 1118 1098 1069 1048 1033 1017 1011 1010 1011 1010
 1809 1774 1746 1723 1696 1670 1650 1628 1599 1568 1540 1515 1498 1488 1482 1476 1464 1445 1424 1395 1378 1370 1375 1379 1378 1375 1382 1373 1350 1332 1321 1328 1346 1353 1347 1335 1325 1321 1315 1310 1305 1296 1284 1272 1255 1244 1235 1230 1226 1226 1229 1234 1240 1244 1250 1257 1266 1274 1279 1286 1295 1301 1312 1329 1351 1366 1365 1358 1350 1342 1332 1325 1319 1314 1310 1307 1305 1305 1308 1311 1312 1308 1302 1294 1287 1284 1279 1276 1275 1273 1267 1255 1240 1228 1218 1211 1206 1198 1188 1179 1168 1159 1152 1141 1126 1113 1099 1087 1079 1069 1058 1047 1032 1023 1020 1020 1008 990 986 1005 1030 1048 1062 1075 1086 1098 1113 1127 1142 1156 1165 1173 1188 1204 1213 1214 1207 1188 1171 1168 1157 1128 1098 1077 1065 1052 1041 1044 1053 1055
 1797 1774 1748 1724 1696 1669 1645 1623 1597 1569 1538 1511 1487 1475 1469 1466 1453 1433 1416 1403 1390 1370 1356 1353 1347 1346 1356 1353 1328 1308 1309 1325 1344 1366 1381 1370 1351 1333 1315 1298 1287 1278 1271 1264 1255 1246 1239 1234 1232 1233 1236 1240 1245 1249 1259 1268 1277 1286 1294 1299 1304 1315 1329 1348 1369 1376 1370 1362 1354 1345 1334 1325 1318 1311 1307 1303 1299 1295 1294 1300 1303 1303 1302 1297 1289 1285 1279 1273 1270 1269 1267 1265 1256 1243 1231 1218 1206 1197 1185 1174 1160 1149 1137 1127 1118 1108 1101 1090 1081 1072 1057 1044 1036 1034 1039 1038 1023 998 989 1003 1031 1051 1063 1077 1088 1097 1108 1121 1138 1156 1171 1193 1212 1220 1225 1224 1221 1212 1200 1191 1180 1155 1130 1117 1109 1096 1077 1074 1089 1097
 1768 1749 1730 1712 1689 1663 1639 1613 1590 1570 1540 1508 1486 1468 1460 1451 1443 1431 1416 1410 1400 1386 1362 1341 1329 1321 1327 1329 1316 1299 1294 1306 1323 1343 1363 1360 1338 1325 1311 1296 1283 1275 1263 1253 1247 1240 1235 1231 1232 1234 1239 1242 1248 1256 1266 1275 1286 1299 1307 1312 1317 1327 1345 1367 1382 1381 1375 1368 1358 1348 1339 1330 1322 1317 1312 1306 1300 1295 1288 1286 1292 1295 1297 1296 1291 1285 1281 1276 1276 1272 1267 1261 1256 1249 1243 1230 1216 1203 1192 1175 1159 1148 1135 1122 1112 1106 1100 1090 1080 1077 1075 1072 1066 1060 1060 1053 1037 1009 993 1002 1028 1051 1064 1076 1085 1095 1106 1118 1136 1155 1175 1197 1215 1224 1225 1224 1216 1209 1204 1196 1187 1179 1164 1160 1151 1127 1104 1099 1111 1121
 1746 1725 1708 1693 1677 1655 1635 1610 1584 1560 1534 1509 1490 1479 1471 1460 1452 1441 1436 1432 1420 1405 1390 1373 1354 1332 1312 1302 1296 1291 1281 1284 1292 1307 1318 1320 1310 1300 1290 1278 1272 1270 1266 1254 1245 1236 1227 1219 1224 1231 1240 1246 1251 1256 1261 1268 1278 1289 1299 1309 1321 1336 1356 1380 1393 1386 1379 1374 1364 1353 1345 1336 1329 1322 1315 1310 1304 1298 1292 1284 1279 1283 1288 1291 1290 1287 1282 1277 1274 1272 1273 1267 1256 1247 1243 1236 1221 1207 1196 1180 1159 1144 1129 1117 1109 1104 1102 1102 1097 1097 1098 1097 1095 1084 1075 1064 1047 1020 999 998 1016 1040 1060 1072 1082 1092 1105 1120 1134 1152 1169 1186 1199 1209 1214 1217 1215 1213 1209 1202 1196 1185 1177 1172 1164 1143 1121 1118 1123 1124
 1736 1714 1691 1676 1660 1643 1625 1607 1584 1558 1534 1514 1503 1503 1507 1498 1477 1456 1442 1436 1430 1426 1417 1396 1376 1359 1337 1314 1296 1284 1273 1267 1269 1270 1274 1277 1283 1281 1273 1260 1251 1253 1253 1248 1242 1234 1222 1207 1208 1216 1227 1237 1243 1247 1251 1256 1266 1276 1286 1297 1314 1333 1357 1383 1394 1388 1383 1378 1370 1360 1352 1344 1336 1328 1321 1314 1308 1302 1295 1286 1277 1273 1274 1281 1288 1287 1283 1278 1275 1270 1268 1269 1262 1250 1240 1233 1220 1205 1192 1176 1154 1133 1117 1109 1107 1107 1112 1113 1111 1111 1114 1112 1103 1095 1087 1074 1057 1030 1003 999 1012 1031 1052 1067 1077 1089 1102 1113 1124 1136 1152 1168 1181 1193 1206 1218 1224 1224 1221 1216 1205 1195 1184 1173 1165 1153 1135 1124 1120 1119
 1718 1698 1679 1663 1648 1639 1628 1609 1591 1563 1539 1521 1512 1511 1512 1508 1486 1458 1436 1423 1419 1417 1413 1397 1379 1362 1342 1324 1305 1296 1290 1280 1273 1268 1267 1262 1259 1254 1249 1239 1229 1225 1223 1222 1219 1214 1207 1199 1191 1189 1202 1217 1229 1232 1237 1246 1258 1268 1278 1292 1310 1329 1357 1386 1392 1388 1385 1381 1374 1366 1358 1351 1342 1333 1325 1316 1310 1305 1298 1291 1283 1274 1267 1265 1275 1280 1277 1269 1266 1266 1261 1257 1255 1246 1234 1228 1219 1199 1179 1162 1143 1125 1113 1107 1106 1110 1119 1124 1128 1129 1127 1118 1110 1104 1094 1080 1066 1044 1014 1001 1011 1033 1047 1058 1070 1078 1087 1098 1111 1124 1139 1154 1168 1181 1194 1205 1216 1221 1222 1220 1212 1202 1190 1177 1166 1154 1144 1129 1121 1115
 1685 1672 1658 1645 1633 1624 1617 1599 1575 1553 1528 1511 1500 1496 1495 1487 1469 1447 1424 1406 1398 1397 1395 1383 1368 1350 1330 1310 1297 1294 1291 1286 1282 1277 1279 1280 1280 1275 1270 1258 1241 1227 1210 1197 1191 1184 1176 1172 1170 1168 1183 1202 1214 1218 1225 1238 1250 1258 1269 1285 1302 1325 1357 1387 1390 1388 1386 1381 1375 1368 1361 1353 1345 1336 1329 1320 1315 1309 1301 1294 1287 1279 1272 1260 1255 1259 1257 1248 1245 1253 1260 1254 1244 1237 1229 1224 1216 1192 1170 1149 1134 1121 1111 1107 1106 1112 1123 1132 1139 1139 1134 1121 1106 1095 1085 1072 1059 1043 1019 1005 1010 1023 1033 1047 1062 1078 1089 1096 1105 1117 1127 1141 1155 1168 1179 1189 1197 1209 1215 1214 1212 1208 1197 1182 1169 1157 1143 1132 1124 1115
 1657 1644 1632 1622 1613 1609 1600 1581 1555 1534 1514 1496 1484 1480 1477 1463 1445 1431 1410 1390 1377 1372 1373 1371 1359 1346 1329 1311 1302 1297 1294 1298 1299 1299 1299 1297 1288 1282 1271 1258 1246 1235 1219 1196 1185 1181 1174 1163 1149 1154 1169 1184 1195 1204 1214 1226 1240 1250 1262 1278 1298 1325 1358 1384 1385 1384 1384 1380 1376 1369 1364 1356 1348 1340 1333 1325 1319 1313 1308 1302 1296 1291 1286 1274 1255 1243 1241 1235 1222 1231 1251 1251 1242 1236 1227 1214 1204 1186 1164 1143 1127 1117 1111 1107 1107 1113 1120 1125 1128 1125 1124 1116 1101 1089 1079 1069 1063 1043 1019 1010 1017 1033 1047 1062 1081 1096 1108 1113 1114 1118 1126 1134 1146 1158 1166 1174 1183 1193 1201 1204 1203 1202 1194 1181 1169 1157 1146 1137 1127 1118
 1643 1624 1610 1599 1589 1583 1581 1572 1549 1521 1497 1481 1471 1467 1463 1446 1425 1405 1389 1371 1360 1355 1364 1375 1371 1360 1343 1327 1318 1322 1328 1332 1337 1331 1316 1299 1284 1270 1258 1249 1236 1225 1217 1209 1201 1192 1184 1175 1154 1142 1149 1164 1181 1193 1204 1219 1234 1247 1260 1273 1294 1321 1354 1377 1380 1380 1380 1376 1373 1368 1363 1358 1350 1344 1337 1331 1326 1321 1314 1306 1303 1300 1295 1289 1284 1273 1263 1251 1228 1213 1225 1236 1237 1233 1223 1206 1188 1172 1156 1138 1124 1115 1109 1103 1097 1099 1099 1092 1088 1089 1091 1090 1086 1080 1074 1066 1051 1029 1014 1016 1026 1041 1059 1079 1101 1114 1121 1127 1129 1130 1133 1139 1146 1154 1160 1164 1171 1179 1186 1192 1192 1191 1186 1175 1165 1157 1147 1139 1129 1120
 1654 1632 1612 1598 1583 1566 1563 1566 1548 1520 1489 1469 1458 1455 1450 1434 1413 1388 1371 1356 1345 1343 1356 1376 1390 1391 1378 1356 1341 1344 1346 1338 1332 1321 1301 1283 1268 1256 1246 1240 1229 1216 1206 1201 1194 1185 1176 1172 1162 1142 1136 1157 1175 1187 1202 1217 1230 1245 1259 1271 1290 1318 1347 1370 1374 1374 1374 1369 1367 1365 1363 1359 1354 1347 1343 1336 1331 1323 1317 1313 1308 1304 1300 1295 1291 1284 1274 1262 1238 1215 1203 1205 1213 1220 1212 1196 1181 1162 1147 1133 1120 1110 1098 1086 1070 1068 1067 1061 1058 1061 1061 1060 1062 1060 1054 1046 1032 1017 1015 1027 1040 1056 1079 1101 1118 1126 1133 1141 1145 1145 1146 1151 1157 1159 1160 1163 1167 1172 1179 1184 1185 1184 1182 1178 1171 1162 1151 1143 1133 1127
 1675 1656 1642 1626 1608 1582 1559 1541 1521 1502 1477 1455 1441 1439 1432 1414 1395 1373 1355 1343 1334 1333 1347 1364 1382 1391 1384 1363 1345 1336 1327 1317 1309 1296 1279 1260 1245 1235 1228 1225 1218 1206 1195 1190 1184 1176 1168 1165 1161 1143 1132 1153 1170 1184 1201 1215 1228 1241 1254 1267 1286 1312 1343 1365 1368 1368 1368 1363 1361 1358 1358 1356 1352 1347 1343 1339 1333 1328 1322 1318 1312 1306 1301 1296 1291 1286 1280 1270 1253 1233 1214 1194 1187 1189 1183 1173 1160 1147 1137 1123 1105 1093 1082 1075 1073 1066 1058 1052 1047 1041 1038 1036 1035 1032 1029 1023 1017 1020 1031 1045 1053 1068 1086 1109 1129 1138 1144 1152 1156 1160 1166 1171 1175 1180 1180 1180 1178 1180 1183 1189 1194 1197 1196 1193 1183 1172 1161 1154 1145 1140
 1700 1681 1667 1654 1636 1607 1578 1546 1513 1485 1458 1436 1424 1417 1408 1391 1372 1357 1346 1337 1328 1324 1332 1345 1363 1374 1370 1353 1337 1323 1309 1297 1286 1272 1257 1240 1227 1217 1211 1205 1199 1192 1184 1178 1173 1166 1161 1159 1152 1139 1127 1148 1168 1181 1195 1207 1218 1231 1242 1257 1278 1304 1338 1359 1362 1365 1364 1358 1354 1349 1348 1346 1342 1337 1333 1329 1325 1321 1317 1312 1307 1301 1295 1290 1283 1276 1267 1261 1255 1249 1243 1221 1184 1162 1148 1140 1130 1122 1117 1105 1093 1094 1095 1095 1100 1097 1089 1085 1075 1061 1051 1047 1049 1044 1036 1026 1020 1028 1043 1062 1077 1091 1100 1115 1132 1149 1162 1170 1174 1177 1181 1183 1187 1193 1196 1197 1198 1201 1205 1206 1209 1213 1210 1207 1197 1186 1176 1169 1162 1156
 1712 1691 1679 1666 1646 1620 1590 1561 1529 1498 1466 1441 1428 1423 1411 1392 1368 1346 1334 1331 1328 1319 1318 1329 1345 1353 1350 1339 1320 1304 1289 1276 1264 1250 1237 1224 1213 1204 1197 1188 1184 1181 1177 1171 1166 1160 1157 1152 1141 1127 1123 1145 1165 1177 1186 1198 1211 1222 1233 1249 1267 1294 1329 1350 1356 1360 1360 1353 1347 1342 1338 1334 1328 1322 1315 1309 1307 1305 1300 1296 1291 1287 1282 1273 1264 1253 1242 1234 1228 1225 1233 1226 1195 1164 1138 1128 1126 1119 1113 1112 1118 1127 1125 1119 1112 1105 1099 1094 1090 1085 1080 1073 1074 1070 1052 1034 1025 1034 1049 1066 1086 1107 1130 1146 1158 1165 1177 1185 1191 1196 1203 1206 1207 1209 1211 1212 1214 1216 1218 1219 1221 1226 1226 1220 1213 1208 1204 1199 1189 1182
 1712 1690 1674 1658 1641 1620 1596 1571 1547 1516 1485 1469 1456 1449 1436 1409 1382 1358 1339 1326 1320 1316 1312 1317 1329 1329 1323 1314 1300 1284 1266 1253 1240 1229 1218 1206 1197 1192 1186 1180 1173 1169 1167 1160 1155 1153 1148 1136 1124 1116 1122 1151 1171 1188 1204 1214 1224 1238 1248 1258 1269 1288 1315 1336 1348 1358 1358 1353 1348 1345 1340 1336 1329 1324 1317 1307 1296 1291 1285 1278 1274 1269 1263 1256 1251 1246 1244 1236 1230 1221 1215 1208 1191 1170 1153 1153 1157 1152 1146 1146 1149 1146 1138 1130 1117 1109 1100 1094 1091 1087 1082 1079 1077 1073 1058 1039 1031 1037 1052 1069 1088 1109 1134 1156 1174 1185 1192 1200 1210 1219 1227 1231 1228 1222 1220 1221 1223 1224 1225 1231 1236 1238 1237 1236 1234 1233 1233 1222 1211 1215
 1705 1684 1668 1649 1629 1608 1591 1573 1555 1533 1507 1493 1482 1473 1451 1421 1392 1365 1344 1331 1322 1317 1311 1311 1313 1309 1302 1295 1280 1262 1247 1234 1222 1208 1195 1186 1179 1178 1174 1170 1165 1160 1156 1152 1148 1146 1140 1121 1107 1116 1137 1161 1176 1192 1205 1218 1232 1249 1264 1277 1284 1297 1313 1329 1344 1358 1359 1357 1356 1354 1351 1347 1346 1343 1339 1331 1318 1305 1297 1289 1280 1274 1274 1273 1276 1279 1280 1269 1260 1247 1234 1217 1206 1201 1189 1188 1192 1191 1187 1179 1166 1153 1141 1134 1123 1113 1102 1096 1092 1089 1085 1081 1078 1073 1056 1040 1039 1052 1071 1091 1109 1127 1151 1173 1190 1204 1212 1220 1230 1234 1236 1235 1232 1234 1233 1231 1232 1235 1239 1244 1248 1252 1256 1259 1263 1264 1258 1241 1234 1244
 1692 1673 1658 1641 1622 1603 1582 1565 1548 1532 1525 1515 1501 1482 1456 1426 1398 1372 1349 1336 1324 1316 1312 1311 1309 1310 1313 1309 1291 1269 1248 1234 1223 1212 1202 1190 1169 1159 1154 1152 1152 1149 1148 1143 1137 1135 1122 1104 1107 1128 1150 1173 1196 1207 1213 1223 1236 1251 1268 1283 1301 1323 1339 1351 1360 1366 1368 1366 1367 1365 1363 1361 1362 1358 1353 1347 1338 1330 1317 1304 1300 1302 1305 1302 1300 1305 1303 1294 1286 1270 1255 1246 1246 1242 1236 1230 1225 1222 1213 1196 1174 1156 1143 1134 1125 1116 1105 1099 1092 1087 1082 1080 1074 1064 1048 1048 1060 1074 1088 1111 1130 1148 1168 1185 1200 1213 1223 1228 1232 1236 1240 1245 1250 1253 1251 1251 1249 1251 1254 1258 1260 1270 1280 1284 1290 1291 1285 1267 1262 1273
 1679 1662 1643 1624 1607 1591 1574 1555 1537 1521 1520 1518 1507 1485 1454 1425 1403 1380 1358 1340 1329 1321 1318 1317 1315 1319 1321 1312 1298 1279 1256 1243 1233 1224 1214 1200 1189 1175 1156 1140 1132 1126 1126 1123 1122 1120 1102 1098 1119 1137 1157 1186 1205 1208 1215 1226 1243 1257 1272 1290 1309 1331 1353 1367 1373 1377 1378 1377 1376 1376 1375 1373 1371 1368 1364 1358 1352 1345 1338 1331 1328 1325 1326 1329 1329 1326 1322 1314 1305 1290 1280 1275 1276 1275 1274 1267 1255 1238 1219 1199 1179 1159 1149 1139 1130 1117 1108 1099 1093 1088 1080 1069 1060 1053 1055 1071 1087 1098 1110 1121 1134 1151 1172 1190 1203 1216 1226 1235 1244 1252 1259 1261 1258 1259 1259 1259 1264 1272 1276 1280 1283 1292 1297 1301 1309 1312 1310 1297 1294 1304
 1676 1659 1637 1614 1596 1582 1564 1545 1523 1508 1504 1501 1493 1478 1451 1424 1399 1379 1359 1342 1335 1327 1326 1329 1327 1330 1326 1315 1297 1275 1255 1241 1224 1215 1206 1197 1189 1177 1163 1151 1138 1124 1114 1105 1098 1097 1087 1102 1126 1142 1164 1191 1207 1206 1214 1231 1251 1271 1293 1317 1342 1356 1369 1379 1386 1386 1384 1384 1381 1380 1379 1378 1376 1374 1369 1364 1361 1358 1355 1351 1348 1347 1345 1344 1343 1340 1334 1326 1317 1306 1298 1292 1286 1278 1270 1262 1248 1231 1213 1195 1182 1177 1166 1151 1140 1127 1115 1105 1098 1092 1086 1073 1057 1062 1072 1079 1087 1094 1106 1118 1134 1156 1180 1204 1218 1232 1247 1257 1262 1267 1268 1266 1267 1272 1274 1279 1286 1292 1294 1299 1307 1319 1322 1325 1332 1339 1336 1327 1327 1331
 1693 1669 1644 1620 1599 1581 1561 1540 1516 1497 1489 1480 1470 1458 1433 1408 1390 1374 1357 1346 1340 1335 1340 1341 1340 1340 1332 1317 1296 1273 1251 1234 1218 1207 1200 1194 1188 1179 1168 1158 1149 1140 1133 1123 1106 1087 1081 1105 1123 1145 1165 1188 1200 1204 1217 1237 1257 1282 1312 1344 1373 1382 1383 1390 1392 1391 1388 1385 1384 1380 1379 1378 1377 1376 1373 1369 1367 1364 1362 1359 1358 1356 1352 1349 1346 1343 1336 1326 1316 1306 1296 1286 1275 1265 1257 1249 1239 1227 1221 1215 1214 1206 1190 1169 1151 1135 1124 1112 1103 1093 1086 1077 1064 1072 1081 1085 1091 1100 1112 1125 1140 1159 1181 1205 1224 1239 1254 1267 1275 1279 1286 1287 1292 1295 1294 1293 1297 1304 1314 1326 1339 1347 1352 1353 1359 1362 1360 1358 1355 1349
 1701 1674 1647 1618 1594 1572 1555 1536 1519 1501 1492 1474 1452 1436 1413 1390 1376 1364 1352 1345 1339 1336 1340 1345 1350 1346 1334 1317 1295 1272 1249 1231 1217 1204 1199 1194 1184 1174 1168 1161 1150 1138 1132 1125 1108 1084 1080 1093 1111 1139 1161 1181 1192 1203 1219 1241 1267 1295 1328 1364 1385 1387 1390 1393 1393 1391 1389 1385 1381 1378 1378 1376 1374 1374 1374 1372 1370 1368 1366 1364 1363 1360 1356 1353 1350 1346 1337 1330 1326 1320 1312 1298 1292 1285 1279 1269 1261 1250 1246 1242 1233 1222 1207 1187 1166 1148 1131 1119 1107 1097 1090 1084 1070 1077 1083 1089 1099 1108 1117 1129 1141 1157 1178 1197 1220 1244 1265 1280 1286 1290 1293 1298 1301 1304 1309 1319 1330 1340 1350 1358 1365 1370 1371 1373 1376 1377 1376 1375 1371 1360
 1701 1671 1645 1620 1597 1573 1556 1540 1527 1512 1505 1490 1467 1449 1424 1396 1374 1360 1346 1336 1331 1328 1329 1341 1349 1345 1332 1316 1293 1270 1250 1228 1213 1200 1195 1192 1181 1171 1164 1153 1141 1135 1128 1120 1113 1089 1069 1076 1108 1141 1169 1191 1193 1204 1224 1246 1271 1301 1335 1370 1386 1385 1387 1392 1389 1385 1382 1379 1370 1363 1361 1364 1366 1369 1368 1370 1370 1369 1368 1366 1365 1363 1360 1357 1355 1352 1348 1343 1339 1336 1330 1321 1315 1311 1304 1297 1286 1269 1257 1248 1239 1225 1209 1195 1178 1159 1141 1128 1115 1104 1095 1088 1075 1074 1083 1093 1103 1111 1121 1133 1147 1164 1182 1200 1223 1250 1273 1296 1315 1325 1330 1336 1340 1344 1349 1358 1362 1366 1369 1373 1375 1376 1378 1378 1379 1379 1379 1378 1375 1366
 1700 1670 1645 1622 1599 1580 1557 1542 1529 1519 1517 1502 1481 1459 1435 1407 1381 1360 1344 1333 1326 1318 1316 1325 1334 1338 1331 1313 1290 1269 1248 1228 1212 1198 1190 1184 1175 1167 1152 1140 1131 1126 1120 1112 1105 1087 1068 1078 1113 1144 1171 1191 1190 1201 1219 1243 1266 1295 1327 1361 1376 1376 1377 1380 1376 1368 1362 1360 1350 1336 1331 1335 1347 1358 1354 1359 1365 1366 1366 1365 1363 1361 1360 1358 1357 1354 1353 1351 1349 1347 1345 1341 1335 1329 1323 1318 1305 1285 1266 1250 1241 1230 1214 1200 1188 1173 1153 1141 1129 1114 1101 1093 1080 1077 1082 1098 1107 1116 1127 1140 1152 1167 1184 1199 1220 1242 1266 1289 1317 1343 1361 1365 1367 1369 1368 1368 1368 1370 1371 1371 1372 1372 1375 1376 1377 1377 1378 1378 1376 1370
 1692 1663 1641 1620 1595 1571 1548 1533 1522 1518 1520 1512 1489 1465 1440 1412 1387 1364 1345 1331 1321 1311 1305 1312 1322 1328 1325 1310 1288 1267 1248 1229 1211 1196 1186 1175 1167 1156 1142 1131 1124 1116 1109 1109 1102 1079 1063 1078 1111 1144 1171 1188 1183 1193 1208 1233 1254 1280 1308 1342 1361 1359 1353 1349 1349 1342 1334 1333 1325 1311 1302 1306 1321 1334 1331 1338 1349 1358 1359 1359 1358 1356 1355 1353 1352 1351 1350 1348 1344 1344 1344 1345 1339 1330 1323 1313 1299 1279 1262 1248 1237 1229 1215 1203 1192 1178 1159 1143 1130 1118 1103 1094 1088 1086 1083 1097 1107 1116 1129 1142 1154 1171 1185 1202 1226 1245 1266 1288 1312 1341 1357 1361 1362 1363 1362 1363 1364 1365 1366 1365 1364 1367 1370 1374 1375 1376 1377 1376 1374 1372
 1687 1658 1629 1608 1583 1557 1535 1520 1511 1507 1509 1503 1487 1466 1439 1407 1384 1361 1342 1328 1320 1310 1300 1300 1306 1313 1313 1303 1283 1265 1245 1226 1209 1193 1183 1171 1162 1150 1137 1127 1118 1110 1099 1094 1091 1076 1060 1080 1119 1148 1176 1184 1175 1184 1198 1218 1236 1248 1270 1299 1330 1339 1328 1315 1313 1310 1304 1308 1302 1291 1280 1279 1289 1303 1308 1318 1335 1349 1353 1352 1350 1345 1343 1340 1340 1338 1336 1333 1328 1326 1327 1331 1328 1312 1300 1287 1270 1254 1241 1231 1224 1221 1210 1198 1183 1169 1157 1144 1131 1120 1107 1097 1097 1096 1086 1093 1105 1114 1125 1138 1154 1173 1194 1215 1239 1257 1274 1290 1309 1325 1335 1346 1355 1356 1356 1358 1359 1358 1359 1357 1356 1361 1368 1373 1376 1378 1377 1376 1373 1370
 1679 1650 1620 1596 1568 1546 1528 1512 1501 1494 1494 1490 1476 1454 1426 1400 1377 1356 1340 1326 1318 1309 1293 1280 1281 1289 1293 1288 1276 1258 1239 1220 1202 1185 1172 1162 1151 1141 1131 1122 1114 1105 1096 1081 1067 1057 1058 1085 1121 1148 1176 1176 1161 1167 1184 1201 1209 1212 1226 1252 1288 1315 1307 1287 1275 1275 1278 1285 1281 1272 1260 1252 1261 1273 1290 1314 1332 1347 1354 1352 1347 1342 1336 1331 1326 1322 1317 1314 1310 1306 1305 1306 1303 1293 1277 1261 1245 1227 1215 1209 1201 1199 1189 1179 1162 1151 1143 1136 1131 1123 1115 1106 1102 1098 1089 1093 1101 1109 1120 1131 1148 1166 1184 1203 1218 1232 1246 1264 1278 1291 1311 1335 1344 1342 1346 1350 1350 1348 1345 1343 1351 1361 1370 1374 1377 1377 1376 1375 1373 1370
 1668 1639 1611 1586 1562 1539 1521 1506 1495 1484 1477 1468 1453 1428 1403 1385 1367 1350 1335 1323 1314 1303 1292 1275 1261 1265 1271 1272 1264 1249 1231 1211 1193 1178 1164 1152 1147 1136 1124 1117 1105 1091 1079 1067 1053 1046 1065 1095 1126 1151 1167 1163 1149 1150 1167 1180 1184 1181 1194 1217 1250 1283 1286 1266 1247 1244 1253 1260 1255 1243 1231 1228 1242 1262 1287 1309 1326 1340 1351 1355 1355 1351 1346 1343 1336 1330 1320 1312 1304 1295 1288 1285 1278 1268 1256 1241 1230 1223 1218 1215 1201 1193 1186 1175 1166 1163 1163 1158 1151 1140 1126 1114 1103 1097 1095 1095 1101 1108 1119 1132 1144 1156 1170 1181 1196 1211 1227 1243 1260 1281 1306 1327 1329 1323 1325 1327 1327 1329 1331 1340 1353 1364 1370 1375 1378 1379 1377 1376 1373 1368
 1665 1642 1616 1592 1567 1549 1535 1520 1505 1495 1485 1465 1444 1416 1390 1371 1355 1343 1330 1318 1307 1296 1284 1272 1254 1244 1243 1243 1242 1236 1221 1204 1186 1171 1158 1145 1138 1131 1125 1119 1113 1098 1080 1065 1048 1045 1067 1100 1130 1149 1157 1147 1133 1131 1146 1158 1163 1157 1161 1180 1205 1236 1259 1253 1229 1218 1227 1229 1215 1203 1204 1225 1246 1263 1280 1294 1307 1321 1338 1350 1349 1344 1342 1341 1335 1327 1318 1308 1300 1294 1291 1295 1293 1279 1270 1256 1246 1239 1236 1234 1226 1217 1211 1202 1199 1195 1193 1181 1169 1154 1137 1122 1109 1099 1097 1097 1101 1107 1117 1131 1143 1154 1167 1177 1189 1203 1217 1232 1250 1276 1300 1315 1313 1306 1299 1298 1305 1315 1331 1347 1357 1365 1370 1374 1377 1378 1377 1375 1374 1371
 1685 1657 1632 1606 1582 1568 1552 1537 1524 1512 1502 1483 1460 1432 1403 1381 1362 1347 1334 1323 1312 1302 1287 1266 1249 1236 1221 1213 1210 1209 1201 1186 1173 1162 1152 1144 1136 1131 1127 1120 1113 1099 1084 1068 1050 1044 1061 1088 1120 1140 1158 1142 1121 1115 1126 1135 1142 1138 1134 1145 1163 1188 1221 1238 1221 1198 1195 1192 1177 1176 1201 1229 1246 1256 1264 1273 1283 1297 1315 1329 1326 1319 1314 1311 1310 1303 1295 1286 1279 1282 1292 1312 1322 1313 1297 1279 1268 1261 1256 1255 1246 1236 1228 1226 1222 1220 1214 1199 1183 1167 1149 1133 1120 1106 1101 1100 1101 1106 1115 1127 1138 1147 1159 1170 1182 1196 1212 1235 1258 1282 1300 1301 1296 1287 1279 1289 1308 1324 1339 1348 1354 1361 1367 1373 1375 1376 1377 1376 1374 1370
 1703 1672 1646 1623 1605 1588 1568 1551 1537 1524 1507 1486 1466 1443 1415 1389 1368 1353 1339 1328 1318 1309 1297 1284 1275 1261 1237 1220 1203 1190 1180 1168 1156 1144 1134 1126 1119 1115 1114 1112 1106 1099 1090 1073 1056 1040 1044 1065 1097 1130 1153 1140 1113 1099 1103 1112 1118 1117 1112 1116 1131 1153 1181 1205 1208 1188 1164 1155 1148 1168 1202 1228 1237 1241 1248 1254 1261 1272 1288 1298 1295 1289 1281 1271 1269 1272 1264 1253 1249 1258 1275 1304 1330 1329 1317 1301 1290 1284 1279 1277 1272 1261 1254 1250 1242 1237 1227 1214 1201 1183 1165 1147 1131 1116 1107 1103 1101 1105 1111 1119 1130 1140 1149 1162 1174 1192 1212 1233 1252 1266 1276 1275 1272 1268 1267 1283 1306 1330 1333 1330 1335 1348 1360 1369 1373 1374 1375 1375 1373 1370
 1708 1682 1657 1639 1618 1597 1576 1559 1545 1527 1506 1487 1471 1457 1428 1399 1375 1359 1347 1336 1325 1318 1314 1311 1300 1283 1261 1245 1231 1212 1196 1181 1167 1154 1145 1131 1120 1105 1095 1091 1087 1084 1080 1069 1060 1044 1034 1047 1080 1116 1142 1134 1112 1093 1086 1091 1096 1094 1091 1092 1102 1118 1138 1165 1182 1170 1143 1127 1140 1172 1202 1217 1223 1222 1228 1235 1240 1249 1260 1266 1260 1255 1248 1236 1232 1236 1233 1220 1223 1240 1261 1286 1312 1330 1331 1325 1312 1303 1296 1291 1287 1282 1276 1268 1261 1248 1235 1223 1212 1197 1180 1161 1144 1126 1113 1107 1104 1105 1109 1112 1120 1128 1137 1156 1170 1184 1197 1210 1223 1236 1245 1246 1244 1244 1250 1270 1296 1309 1305 1302 1312 1331 1348 1360 1369 1371 1372 1372 1371 1369
 1694 1675 1654 1632 1611 1588 1568 1553 1541 1521 1498 1480 1465 1452 1429 1404 1383 1367 1354 1344 1338 1334 1329 1321 1312 1298 1280 1261 1244 1224 1206 1189 1175 1162 1149 1139 1129 1121 1105 1094 1088 1078 1070 1059 1047 1039 1030 1038 1069 1102 1130 1126 1106 1086 1071 1070 1074 1075 1075 1073 1079 1090 1103 1120 1139 1135 1112 1110 1138 1173 1197 1205 1205 1206 1210 1216 1219 1225 1233 1238 1234 1226 1222 1213 1198 1201 1205 1198 1206 1229 1245 1256 1274 1305 1327 1335 1334 1325 1314 1307 1300 1294 1289 1280 1271 1253 1238 1227 1214 1200 1187 1171 1157 1138 1122 1111 1106 1108 1107 1108 1110 1115 1123 1140 1156 1171 1182 1190 1203 1214 1217 1215 1217 1223 1232 1255 1273 1275 1273 1282 1300 1317 1336 1356 1366 1370 1370 1371 1370 1367
 1690 1670 1652 1632 1610 1586 1561 1542 1527 1513 1493 1473 1455 1437 1419 1399 1385 1372 1362 1355 1349 1344 1339 1331 1318 1300 1282 1266 1249 1227 1208 1193 1181 1165 1151 1140 1128 1117 1112 1106 1101 1096 1089 1079 1061 1038 1027 1031 1061 1090 1114 1118 1102 1083 1062 1055 1057 1060 1061 1063 1062 1067 1073 1083 1095 1099 1087 1102 1136 1169 1188 1191 1186 1183 1187 1193 1197 1201 1207 1213 1213 1208 1204 1198 1181 1174 1176 1176 1192 1208 1217 1227 1247 1272 1301 1324 1335 1334 1326 1314 1304 1298 1292 1283 1273 1256 1242 1230 1218 1205 1190 1175 1159 1146 1135 1120 1112 1108 1107 1109 1110 1110 1116 1127 1141 1155 1164 1174 1183 1190 1190 1192 1197 1206 1218 1235 1244 1250 1260 1277 1298 1316 1335 1355 1364 1368 1369 1370 1369 1367
 1686 1666 1646 1629 1611 1589 1565 1546 1531 1517 1504 1489 1468 1444 1422 1404 1390 1379 1370 1363 1356 1350 1348 1337 1321 1308 1290 1270 1250 1226 1206 1190 1177 1163 1148 1140 1126 1116 1108 1101 1094 1088 1082 1077 1064 1043 1026 1027 1055 1077 1092 1100 1098 1083 1063 1048 1045 1047 1050 1051 1048 1048 1048 1049 1057 1067 1067 1084 1113 1139 1152 1159 1156 1154 1167 1173 1171 1172 1178 1185 1190 1189 1185 1181 1171 1157 1151 1160 1177 1190 1201 1212 1223 1237 1262 1298 1317 1320 1312 1302 1293 1285 1279 1273 1265 1256 1246 1236 1224 1211 1199 1182 1169 1159 1148 1134 1122 1115 1113 1111 1111 1115 1116 1120 1130 1140 1148 1155 1162 1168 1171 1178 1189 1200 1208 1217 1228 1245 1266 1283 1302 1321 1339 1355 1363 1366 1367 1368 1368 1369
 1688 1668 1653 1635 1619 1600 1580 1561 1547 1536 1523 1502 1480 1456 1431 1411 1396 1385 1377 1368 1363 1358 1352 1340 1326 1310 1292 1266 1242 1223 1202 1187 1173 1161 1148 1136 1125 1115 1107 1103 1099 1092 1088 1081 1072 1059 1034 1021 1036 1059 1069 1076 1077 1071 1058 1042 1035 1037 1038 1036 1035 1034 1032 1031 1035 1042 1047 1059 1082 1096 1103 1109 1115 1122 1144 1151 1148 1146 1153 1160 1164 1168 1165 1157 1151 1145 1134 1142 1158 1171 1183 1191 1196 1206 1229 1268 1297 1300 1292 1280 1270 1264 1261 1256 1253 1249 1247 1239 1232 1219 1206 1191 1176 1167 1154 1143 1131 1123 1118 1115 1114 1116 1120 1123 1128 1133 1137 1145 1152 1156 1163 1172 1181 1190 1200 1216 1236 1257 1277 1294 1309 1324 1342 1356 1362 1364 1366 1368 1370 1370
 1703 1693 1679 1657 1638 1616 1595 1579 1564 1553 1537 1512 1491 1470 1443 1418 1404 1392 1382 1375 1369 1364 1356 1346 1329 1313 1295 1272 1247 1228 1209 1191 1177 1163 1149 1136 1126 1116 1108 1100 1097 1093 1088 1082 1078 1076 1058 1032 1024 1033 1044 1050 1056 1057 1050 1033 1026 1027 1026 1024 1023 1021 1022 1025 1028 1030 1032 1035 1042 1052 1058 1064 1073 1088 1118 1128 1126 1125 1134 1145 1146 1147 1144 1135 1126 1125 1116 1121 1137 1148 1159 1168 1173 1183 1204 1239 1276 1281 1274 1263 1250 1243 1243 1241 1240 1241 1244 1247 1242 1232 1220 1206 1188 1175 1161 1144 1136 1129 1124 1119 1117 1118 1120 1121 1127 1132 1136 1142 1145 1151 1160 1166 1174 1188 1209 1233 1262 1286 1307 1320 1328 1338 1347 1353 1358 1362 1366 1369 1369 1370
 1720 1720 1709 1681 1653 1631 1609 1591 1578 1564 1544 1517 1494 1473 1449 1426 1411 1396 1385 1379 1372 1367 1362 1348 1331 1315 1297 1273 1249 1229 1209 1191 1174 1162 1148 1137 1125 1117 1107 1098 1091 1085 1081 1079 1075 1073 1064 1053 1041 1029 1022 1023 1031 1040 1039 1027 1019 1018 1016 1015 1015 1015 1016 1017 1019 1021 1020 1020 1019 1022 1026 1032 1040 1056 1076 1096 1100 1105 1118 1127 1130 1127 1125 1118 1110 1106 1100 1097 1110 1124 1136 1147 1150 1158 1175 1205 1242 1264 1259 1245 1233 1226 1225 1226 1230 1237 1243 1253 1259 1249 1239 1226 1201 1178 1161 1148 1141 1135 1130 1124 1119 1120 1120 1123 1125 1131 1135 1138 1140 1145 1153 1163 1180 1199 1221 1249 1275 1298 1312 1320 1323 1326 1331 1337 1347 1356 1363 1367 1370 1371
 1728 1735 1721 1693 1664 1642 1622 1604 1587 1569 1549 1522 1493 1471 1449 1428 1414 1399 1390 1381 1374 1368 1359 1346 1327 1310 1292 1274 1251 1226 1207 1188 1171 1156 1145 1134 1124 1114 1106 1096 1089 1081 1074 1068 1065 1068 1067 1063 1061 1051 1038 1019 1012 1021 1029 1022 1013 1011 1010 1008 1008 1008 1008 1012 1013 1013 1013 1013 1010 1008 1010 1013 1016 1024 1037 1056 1074 1094 1103 1108 1110 1107 1102 1098 1094 1092 1091 1084 1087 1104 1114 1124 1130 1135 1149 1170 1203 1237 1240 1232 1223 1216 1212 1213 1223 1233 1243 1254 1266 1264 1254 1238 1213 1185 1167 1156 1149 1142 1137 1130 1122 1119 1120 1121 1123 1128 1128 1131 1134 1141 1155 1173 1190 1205 1221 1244 1262 1278 1291 1297 1297 1298 1309 1324 1342 1357 1363 1368 1371 1372
 1715 1740 1732 1708 1684 1656 1633 1613 1596 1575 1551 1524 1495 1474 1453 1433 1418 1404 1393 1384 1375 1370 1360 1345 1326 1311 1298 1282 1261 1237 1215 1195 1180 1163 1148 1136 1123 1112 1103 1094 1087 1081 1074 1069 1062 1057 1057 1056 1055 1050 1045 1038 1024 1009 1015 1012 1007 1006 1004 1003 1003 1003 1003 1005 1006 1005 1004 1004 1001 999 1001 1001 1001 1004 1013 1031 1057 1079 1090 1094 1093 1091 1086 1079 1077 1075 1073 1070 1070 1083 1095 1107 1114 1116 1121 1138 1168 1203 1214 1209 1208 1207 1204 1206 1215 1226 1236 1247 1256 1261 1260 1247 1228 1207 1187 1174 1169 1160 1152 1140 1132 1125 1118 1119 1120 1123 1124 1124 1128 1145 1160 1172 1183 1197 1212 1226 1238 1250 1261 1265 1268 1284 1313 1331 1343 1353 1361 1366 1369 1373
 1671 1703 1723 1714 1691 1666 1641 1615 1599 1583 1560 1535 1507 1484 1463 1441 1426 1411 1398 1389 1383 1379 1369 1351 1336 1323 1306 1288 1267 1247 1224 1203 1185 1167 1153 1137 1120 1109 1101 1093 1084 1076 1072 1067 1061 1056 1053 1046 1039 1036 1037 1038 1036 1025 1015 1004 1001 1000 999 999 998 999 999 1000 1001 998 996 996 996 995 997 994 993 994 997 1014 1038 1061 1079 1085 1086 1080 1075 1068 1061 1061 1058 1054 1055 1062 1072 1082 1086 1089 1093 1107 1132 1164 1186 1184 1183 1183 1188 1201 1211 1220 1228 1234 1241 1249 1256 1259 1244 1228 1214 1203 1196 1184 1170 1150 1137 1131 1122 1118 1117 1118 1117 1116 1124 1143 1154 1163 1174 1187 1199 1210 1217 1220 1226 1239 1257 1284 1298 1310 1325 1342 1356 1365 1370 1374
 1615 1657 1699 1713 1690 1663 1636 1615 1598 1583 1563 1543 1518 1496 1474 1455 1438 1422 1410 1402 1397 1388 1374 1357 1339 1320 1306 1290 1271 1248 1227 1207 1187 1171 1155 1138 1123 1116 1108 1096 1084 1077 1071 1067 1068 1067 1063 1055 1044 1033 1026 1024 1024 1026 1020 1007 998 994 994 994 994 996 995 995 995 994 991 989 991 991 991 988 986 986 991 1002 1024 1047 1069 1081 1086 1079 1067 1059 1049 1047 1047 1042 1041 1045 1049 1055 1059 1063 1067 1080 1098 1125 1156 1165 1157 1163 1178 1191 1198 1206 1214 1221 1229 1237 1245 1252 1255 1248 1237 1220 1202 1184 1169 1154 1142 1135 1129 1124 1114 1110 1110 1109 1113 1130 1139 1153 1166 1174 1181 1188 1192 1196 1210 1233 1250 1264 1284 1307 1328 1347 1359 1366 1372 1379
 1577 1622 1674 1701 1681 1652 1622 1603 1595 1581 1564 1544 1525 1508 1486 1462 1440 1425 1414 1406 1396 1381 1362 1343 1323 1304 1290 1275 1258 1241 1224 1210 1190 1171 1156 1142 1130 1122 1114 1102 1090 1082 1076 1072 1071 1069 1061 1053 1045 1037 1033 1027 1016 1014 1012 1003 997 993 991 990 990 991 990 989 989 988 987 982 980 981 984 983 984 985 991 1004 1020 1042 1067 1083 1084 1077 1063 1052 1043 1034 1032 1027 1025 1030 1032 1033 1038 1043 1047 1055 1070 1092 1120 1140 1137 1152 1169 1182 1185 1191 1196 1206 1219 1228 1235 1242 1250 1252 1244 1229 1211 1193 1179 1163 1151 1139 1132 1122 1112 1107 1104 1104 1105 1114 1131 1145 1152 1157 1161 1167 1174 1183 1198 1213 1236 1261 1288 1309 1327 1344 1354 1364 1372 1380
 1560 1614 1652 1681 1666 1639 1613 1593 1581 1572 1563 1545 1527 1508 1489 1465 1436 1418 1407 1397 1382 1368 1348 1328 1311 1296 1280 1262 1242 1224 1207 1194 1181 1163 1147 1133 1121 1111 1106 1098 1090 1085 1079 1074 1066 1060 1051 1042 1036 1033 1030 1026 1015 1005 1003 997 994 991 989 987 987 987 987 986 984 981 979 978 976 976 977 978 979 979 991 1001 1014 1039 1064 1080 1076 1065 1053 1042 1034 1026 1017 1012 1011 1016 1014 1016 1023 1023 1026 1035 1044 1061 1081 1105 1120 1133 1153 1165 1171 1174 1180 1193 1206 1217 1229 1240 1250 1256 1254 1244 1229 1211 1196 1180 1166 1154 1141 1131 1118 1105 1100 1101 1101 1109 1122 1132 1135 1140 1149 1164 1179 1193 1211 1232 1256 1276 1292 1308 1322 1332 1341 1355 1369 1381
 1531 1582 1607 1645 1645 1621 1599 1578 1566 1558 1553 1537 1519 1498 1480 1455 1430 1410 1396 1385 1373 1361 1354 1347 1337 1325 1306 1280 1258 1237 1216 1199 1184 1167 1149 1133 1117 1103 1092 1083 1079 1076 1071 1066 1058 1051 1045 1038 1032 1026 1020 1015 1007 997 992 990 988 986 985 985 984 984 983 983 983 988 990 986 980 976 975 975 976 978 992 1002 1016 1036 1059 1069 1058 1044 1033 1024 1014 1011 1006 1002 999 1002 999 999 1005 1005 1005 1014 1024 1032 1045 1080 1110 1115 1126 1142 1149 1156 1168 1182 1193 1209 1226 1238 1249 1257 1261 1258 1242 1225 1208 1193 1179 1166 1151 1134 1118 1104 1095 1095 1096 1106 1114 1121 1128 1142 1161 1178 1196 1217 1242 1262 1274 1282 1290 1294 1302 1313 1329 1347 1365 1380
 1493 1527 1564 1609 1631 1605 1584 1567 1550 1538 1528 1515 1500 1483 1469 1453 1431 1408 1398 1395 1387 1382 1381 1377 1362 1341 1322 1295 1269 1245 1228 1208 1191 1171 1151 1132 1119 1107 1092 1079 1069 1064 1060 1056 1051 1047 1042 1036 1030 1025 1015 1003 995 990 987 987 986 989 988 986 987 988 991 1000 1016 1029 1033 1024 1012 996 982 975 975 981 996 1005 1014 1030 1050 1054 1042 1027 1016 1004 995 990 989 989 987 986 985 983 986 988 987 994 999 1009 1025 1059 1090 1097 1105 1121 1137 1150 1164 1178 1189 1206 1222 1233 1245 1255 1258 1260 1251 1236 1219 1200 1184 1166 1149 1130 1115 1103 1093 1093 1094 1101 1107 1112 1120 1140 1159 1174 1190 1210 1232 1243 1249 1255 1259 1272 1293 1310 1328 1344 1358 1373
 1458 1499 1542 1589 1622 1600 1573 1550 1531 1512 1504 1496 1485 1475 1465 1454 1438 1422 1418 1420 1418 1415 1405 1391 1374 1350 1325 1297 1268 1241 1219 1198 1177 1158 1141 1127 1113 1101 1089 1079 1070 1062 1054 1048 1043 1039 1038 1034 1026 1022 1012 999 991 988 986 987 995 1006 1011 1014 1016 1018 1028 1042 1057 1067 1059 1046 1033 1014 993 981 977 979 994 1005 1010 1021 1033 1036 1027 1014 1003 989 980 975 976 977 976 977 977 975 974 975 976 981 985 994 1009 1033 1064 1085 1099 1119 1140 1149 1158 1171 1183 1194 1211 1225 1237 1246 1252 1257 1254 1246 1229 1206 1187 1168 1149 1127 1111 1099 1089 1088 1090 1092 1099 1102 1109 1127 1146 1162 1175 1187 1199 1206 1214 1226 1244 1265 1285 1300 1316 1330 1346 1364
 1436 1482 1532 1588 1622 1599 1569 1548 1526 1500 1490 1487 1484 1480 1477 1476 1460 1446 1441 1438 1437 1434 1419 1398 1377 1352 1326 1298 1266 1235 1209 1189 1169 1150 1130 1115 1102 1090 1078 1072 1068 1064 1056 1051 1044 1033 1028 1029 1022 1017 1007 994 990 988 987 991 1003 1014 1026 1035 1042 1049 1061 1080 1091 1083 1068 1052 1037 1021 1003 996 990 978 988 1003 1006 1009 1013 1014 1008 996 985 975 970 970 970 971 972 972 972 971 970 968 969 973 978 981 993 1017 1054 1086 1095 1110 1134 1142 1150 1164 1174 1185 1198 1211 1228 1239 1246 1251 1252 1248 1238 1216 1195 1176 1152 1129 1111 1099 1090 1087 1088 1088 1088 1092 1099 1115 1136 1151 1158 1162 1168 1182 1200 1223 1250 1268 1285 1304 1320 1331 1345 1361
 1427 1467 1524 1579 1617 1602 1575 1549 1523 1500 1492 1487 1485 1485 1485 1492 1482 1471 1468 1464 1455 1441 1419 1398 1377 1356 1329 1297 1264 1229 1197 1177 1160 1149 1136 1122 1110 1093 1074 1063 1054 1050 1049 1045 1036 1026 1017 1011 1005 1000 997 991 989 988 993 999 1009 1022 1032 1043 1055 1070 1087 1107 1105 1091 1076 1059 1043 1026 1015 1005 998 985 982 996 1000 1001 999 993 983 972 965 964 964 963 965 965 966 965 966 964 964 962 964 965 968 976 982 1006 1038 1072 1088 1097 1118 1127 1137 1156 1166 1176 1187 1200 1213 1228 1238 1248 1252 1249 1241 1222 1200 1178 1155 1134 1117 1102 1092 1087 1085 1084 1083 1083 1089 1103 1118 1129 1130 1140 1157 1180 1206 1230 1256 1276 1292 1299 1305 1314 1330 1348
 1414 1455 1516 1565 1610 1607 1578 1551 1524 1503 1496 1494 1496 1496 1502 1506 1499 1488 1480 1471 1458 1445 1423 1399 1378 1360 1335 1300 1265 1230 1195 1171 1157 1147 1135 1118 1104 1091 1078 1065 1052 1040 1031 1028 1022 1013 1006 999 994 993 991 990 992 1001 1011 1009 1021 1033 1042 1053 1068 1086 1106 1125 1120 1102 1086 1066 1047 1032 1021 1009 1000 989 977 978 985 988 985 976 967 965 964 966 964 963 962 961 961 960 960 960 960 959 961 961 963 968 970 987 1018 1052 1073 1079 1095 1114 1130 1145 1158 1164 1172 1186 1201 1218 1233 1245 1251 1248 1242 1230 1209 1186 1160 1136 1121 1106 1096 1091 1085 1081 1081 1081 1082 1090 1098 1107 1119 1141 1160 1176 1197 1217 1238 1252 1262 1270 1284 1301 1320 1337
 1412 1455 1502 1552 1603 1606 1580 1552 1526 1509 1505 1502 1506 1509 1514 1511 1495 1482 1471 1464 1453 1439 1426 1403 1378 1358 1339 1306 1268 1233 1199 1175 1158 1142 1123 1103 1088 1073 1064 1060 1049 1036 1024 1015 1011 1004 997 995 993 992 993 996 1006 1025 1025 1016 1028 1041 1050 1063 1079 1101 1126 1149 1150 1133 1110 1085 1063 1047 1030 1016 1008 1000 993 982 975 973 972 968 967 966 970 976 979 973 969 966 964 961 959 958 959 959 959 959 958 958 963 974 998 1031 1060 1073 1088 1108 1128 1140 1150 1160 1172 1186 1201 1219 1232 1242 1249 1251 1247 1237 1217 1189 1165 1142 1124 1115 1108 1096 1087 1078 1077 1077 1079 1082 1087 1094 1108 1129 1146 1164 1181 1194 1204 1216 1232 1254 1280 1297 1306 1309
 1409 1451 1494 1549 1600 1601 1574 1553 1532 1516 1511 1516 1526 1528 1524 1510 1491 1474 1461 1452 1441 1430 1419 1400 1378 1356 1337 1309 1269 1235 1203 1174 1153 1137 1113 1090 1075 1058 1053 1050 1039 1028 1020 1010 1004 997 995 995 995 995 1001 1016 1034 1042 1032 1024 1038 1049 1059 1073 1092 1115 1141 1165 1165 1152 1136 1116 1094 1074 1054 1038 1027 1018 1013 1006 992 983 980 976 975 974 979 990 997 997 998 995 992 984 968 960 957 958 957 956 957 957 960 966 984 1015 1054 1072 1083 1104 1125 1138 1153 1170 1181 1196 1210 1227 1239 1250 1262 1266 1258 1244 1220 1197 1171 1148 1126 1117 1112 1100 1093 1083 1078 1075 1076 1076 1077 1082 1091 1111 1134 1149 1160 1168 1176 1197 1224 1250 1266 1273 1274 1272
 1390 1438 1492 1543 1591 1603 1576 1555 1545 1539 1538 1545 1548 1543 1533 1514 1492 1472 1457 1441 1428 1416 1406 1393 1373 1352 1331 1309 1273 1238 1203 1172 1144 1129 1106 1084 1071 1057 1049 1042 1033 1026 1018 1007 1000 997 996 996 997 1000 1015 1035 1052 1051 1038 1030 1041 1054 1069 1086 1107 1131 1160 1181 1178 1163 1147 1130 1114 1094 1079 1067 1055 1044 1030 1018 1009 1002 998 997 993 989 997 1008 1013 1017 1023 1023 1021 1005 988 975 961 957 956 955 956 956 955 960 973 999 1042 1067 1079 1097 1116 1133 1154 1172 1188 1202 1217 1233 1251 1264 1275 1273 1264 1251 1228 1203 1181 1154 1130 1120 1117 1109 1100 1095 1089 1077 1074 1073 1073 1073 1080 1099 1122 1130 1136 1146 1158 1182 1205 1222 1236 1241 1243 1238
 1370 1425 1483 1524 1567 1603 1592 1577 1572 1572 1580 1580 1578 1568 1551 1532 1510 1480 1453 1436 1421 1409 1399 1388 1372 1349 1328 1312 1270 1236 1202 1172 1141 1116 1094 1077 1069 1060 1050 1042 1033 1024 1012 1002 999 999 998 998 999 1012 1032 1048 1056 1055 1040 1035 1048 1063 1079 1099 1120 1146 1176 1199 1191 1172 1154 1137 1120 1106 1093 1084 1073 1062 1047 1038 1031 1027 1022 1019 1020 1026 1034 1037 1039 1044 1048 1047 1043 1024 1008 994 980 973 965 956 955 955 955 957 966 987 1025 1060 1077 1094 1113 1132 1149 1168 1184 1204 1224 1243 1260 1277 1284 1279 1268 1256 1235 1208 1187 1164 1140 1129 1125 1114 1105 1100 1093 1082 1073 1070 1069 1069 1071 1085 1101 1112 1121 1135 1148 1167 1184 1197 1208 1212 1210 1213
 1354 1403 1454 1499 1543 1591 1604 1595 1611 1621 1622 1612 1600 1586 1570 1552 1526 1491 1464 1444 1427 1412 1403 1391 1372 1350 1328 1308 1265 1229 1198 1170 1142 1118 1097 1081 1069 1058 1046 1032 1023 1017 1007 1000 1000 999 998 998 1002 1018 1040 1052 1057 1057 1043 1043 1057 1070 1087 1108 1132 1161 1192 1213 1203 1184 1164 1147 1131 1117 1107 1098 1091 1084 1076 1072 1070 1067 1064 1064 1073 1078 1072 1068 1072 1076 1069 1067 1058 1038 1021 1006 993 986 978 963 956 954 954 954 959 979 1015 1060 1082 1102 1124 1143 1158 1175 1189 1209 1229 1251 1268 1283 1288 1285 1274 1263 1243 1215 1192 1171 1151 1133 1127 1120 1110 1101 1091 1081 1072 1069 1069 1067 1067 1075 1090 1104 1116 1127 1139 1153 1164 1174 1179 1181 1184 1195
 1348 1387 1433 1485 1531 1577 1609 1625 1646 1650 1639 1622 1607 1593 1581 1567 1544 1507 1478 1459 1438 1419 1406 1388 1368 1346 1321 1297 1258 1219 1189 1163 1135 1109 1090 1075 1062 1052 1041 1023 1011 1005 1003 1001 1000 1001 1001 1001 1006 1023 1045 1055 1059 1059 1048 1050 1062 1077 1095 1119 1143 1175 1210 1230 1222 1207 1192 1174 1157 1143 1135 1129 1122 1122 1119 1116 1123 1132 1128 1123 1118 1108 1099 1098 1104 1096 1083 1078 1064 1046 1029 1013 1002 993 986 969 956 953 953 952 957 978 1009 1051 1084 1112 1134 1159 1180 1194 1209 1226 1242 1261 1275 1285 1288 1287 1280 1268 1252 1225 1201 1178 1156 1140 1129 1117 1109 1101 1093 1085 1076 1069 1067 1065 1065 1066 1073 1084 1098 1113 1127 1138 1145 1150 1155 1159 1166 1179
 1331 1370 1418 1471 1518 1565 1600 1627 1653 1659 1645 1626 1608 1593 1583 1574 1558 1530 1498 1472 1449 1427 1407 1383 1362 1339 1319 1294 1247 1208 1179 1151 1124 1099 1082 1069 1057 1048 1036 1020 1010 1004 1004 1003 1002 1002 1003 1002 1006 1026 1046 1053 1057 1060 1054 1057 1068 1084 1102 1125 1153 1187 1226 1245 1240 1232 1221 1203 1189 1184 1183 1176 1175 1178 1179 1167 1171 1178 1168 1154 1140 1127 1120 1121 1116 1108 1093 1080 1064 1047 1031 1018 1006 997 990 974 959 954 952 953 955 975 1003 1044 1077 1109 1141 1166 1185 1203 1220 1240 1259 1275 1283 1286 1287 1287 1283 1272 1258 1242 1218 1196 1175 1154 1141 1126 1111 1102 1096 1089 1082 1071 1067 1062 1061 1060 1062 1069 1084 1099 1112 1124 1128 1131 1140 1150 1159 1171
 1318 1359 1401 1448 1496 1541 1577 1606 1633 1649 1640 1622 1605 1588 1578 1564 1545 1523 1500 1482 1462 1436 1410 1385 1358 1330 1310 1284 1240 1201 1170 1141 1117 1092 1075 1063 1053 1045 1035 1019 1007 1003 1004 1004 1004 1004 1002 1004 1009 1027 1048 1056 1062 1065 1062 1068 1076 1091 1107 1130 1160 1194 1232 1257 1261 1259 1253 1243 1238 1230 1228 1235 1237 1229 1221 1208 1202 1197 1187 1171 1152 1134 1121 1116 1110 1104 1089 1071 1058 1043 1029 1017 1009 999 989 975 959 952 951 951 952 970 997 1033 1072 1105 1135 1161 1180 1197 1215 1235 1259 1277 1283 1284 1284 1286 1285 1279 1263 1250 1229 1208 1188 1166 1147 1131 1118 1107 1101 1096 1087 1078 1071 1064 1060 1058 1057 1060 1067 1081 1093 1104 1110 1118 1130 1143 1155 1167
 1299 1341 1381 1429 1472 1512 1552 1584 1613 1634 1624 1608 1594 1574 1557 1540 1518 1504 1488 1477 1467 1440 1415 1384 1350 1325 1303 1272 1231 1193 1160 1135 1108 1086 1071 1059 1051 1039 1028 1014 1005 1005 1005 1005 1006 1005 1004 1005 1009 1027 1046 1058 1066 1073 1071 1075 1086 1100 1116 1136 1164 1198 1235 1267 1284 1296 1300 1297 1298 1301 1297 1291 1278 1263 1246 1231 1218 1208 1196 1178 1157 1135 1116 1102 1092 1091 1084 1065 1047 1034 1022 1009 1002 994 986 974 960 952 951 950 952 971 994 1022 1060 1093 1120 1141 1156 1173 1190 1212 1246 1275 1283 1282 1282 1283 1281 1279 1271 1257 1238 1216 1196 1173 1152 1136 1126 1120 1109 1100 1094 1090 1082 1077 1069 1059 1056 1056 1059 1067 1077 1086 1099 1110 1118 1129 1144 1157
 1284 1326 1369 1416 1458 1494 1530 1567 1597 1620 1604 1587 1574 1554 1536 1517 1499 1485 1470 1458 1448 1432 1410 1379 1340 1315 1292 1261 1222 1187 1151 1122 1099 1081 1069 1058 1050 1043 1027 1011 1005 1005 1006 1008 1007 1006 1006 1006 1009 1025 1044 1056 1064 1075 1079 1082 1093 1106 1122 1142 1166 1198 1231 1265 1291 1315 1336 1332 1326 1319 1307 1294 1281 1268 1253 1235 1217 1204 1190 1174 1156 1133 1116 1099 1083 1072 1066 1056 1041 1028 1016 1005 997 992 986 973 958 952 950 949 951 966 984 1013 1055 1085 1108 1132 1151 1168 1195 1220 1252 1277 1281 1280 1279 1279 1280 1280 1274 1263 1250 1228 1206 1180 1160 1145 1136 1129 1118 1109 1104 1100 1094 1088 1080 1071 1060 1055 1057 1062 1069 1074 1083 1093 1105 1119 1130 1141
 1268 1307 1357 1400 1438 1479 1522 1562 1583 1587 1571 1550 1534 1516 1498 1483 1472 1455 1436 1424 1413 1405 1390 1365 1332 1305 1278 1243 1210 1176 1143 1115 1090 1074 1063 1054 1050 1041 1024 1010 1007 1006 1008 1009 1008 1008 1007 1007 1009 1025 1037 1044 1055 1073 1085 1092 1104 1114 1126 1145 1166 1192 1223 1255 1284 1313 1337 1335 1325 1315 1303 1289 1274 1260 1246 1229 1210 1190 1177 1161 1143 1127 1111 1094 1081 1066 1054 1046 1035 1022 1010 999 985 982 980 970 958 952 949 949 949 957 972 1008 1052 1090 1119 1149 1172 1191 1216 1239 1265 1277 1278 1279 1276 1275 1276 1276 1277 1272 1261 1242 1217 1191 1171 1157 1145 1132 1120 1112 1108 1104 1099 1095 1092 1086 1077 1062 1051 1053 1057 1061 1069 1083 1100 1111 1121 1131
 1262 1305 1357 1400 1438 1481 1524 1554 1554 1539 1522 1507 1490 1475 1458 1444 1433 1414 1396 1385 1379 1371 1358 1344 1320 1294 1266 1232 1197 1165 1133 1108 1087 1069 1060 1051 1044 1032 1018 1009 1009 1011 1011 1010 1009 1010 1009 1009 1011 1021 1031 1038 1051 1073 1089 1099 1108 1119 1132 1149 1170 1199 1230 1267 1296 1320 1339 1340 1329 1320 1306 1291 1278 1262 1247 1232 1221 1209 1196 1181 1165 1147 1130 1112 1095 1080 1067 1055 1040 1023 1005 995 982 973 970 964 957 952 950 948 947 950 965 998 1045 1088 1114 1148 1171 1191 1217 1241 1265 1277 1277 1274 1272 1268 1264 1264 1265 1266 1264 1251 1226 1199 1178 1162 1148 1133 1121 1111 1105 1104 1101 1097 1091 1085 1079 1072 1059 1049 1049 1052 1063 1078 1092 1100 1107 1116
 1261 1306 1350 1393 1429 1471 1516 1540 1537 1513 1490 1477 1457 1442 1426 1413 1398 1377 1355 1340 1333 1327 1321 1316 1298 1276 1250 1216 1183 1154 1123 1099 1077 1061 1051 1041 1032 1020 1012 1011 1009 1009 1012 1012 1011 1011 1011 1011 1015 1025 1034 1045 1059 1078 1095 1105 1113 1124 1136 1150 1168 1194 1228 1264 1295 1320 1342 1350 1341 1328 1315 1302 1288 1277 1267 1257 1247 1235 1222 1206 1189 1168 1148 1128 1105 1086 1071 1060 1058 1044 1020 1004 988 980 977 972 963 953 948 948 947 947 960 985 1027 1073 1104 1133 1158 1181 1205 1227 1251 1270 1274 1272 1271 1267 1257 1249 1238 1235 1236 1230 1215 1195 1174 1160 1146 1131 1118 1110 1104 1100 1101 1099 1089 1080 1076 1073 1063 1048 1044 1047 1055 1069 1081 1087 1095 1106
 1252 1290 1327 1361 1398 1439 1479 1510 1521 1502 1476 1457 1440 1423 1408 1389 1366 1334 1310 1293 1289 1288 1284 1282 1271 1248 1224 1197 1167 1137 1109 1090 1072 1058 1048 1033 1023 1015 1012 1014 1012 1012 1013 1012 1011 1012 1012 1012 1018 1028 1038 1051 1064 1083 1102 1111 1120 1129 1141 1155 1167 1186 1214 1244 1273 1304 1332 1352 1350 1338 1324 1311 1297 1287 1279 1268 1254 1239 1223 1207 1190 1170 1151 1130 1111 1093 1075 1071 1073 1055 1029 1011 998 988 981 976 965 951 947 948 946 946 954 976 1014 1055 1087 1114 1144 1171 1193 1213 1229 1248 1265 1273 1272 1271 1266 1260 1244 1227 1213 1198 1190 1176 1162 1149 1139 1129 1117 1108 1103 1096 1094 1092 1084 1076 1072 1068 1058 1047 1040 1046 1054 1062 1071 1079 1090 1103
 1236 1265 1292 1320 1357 1394 1427 1464 1493 1493 1464 1437 1422 1406 1389 1370 1335 1299 1272 1255 1255 1259 1259 1252 1240 1220 1196 1171 1145 1118 1095 1076 1064 1051 1040 1025 1016 1015 1015 1015 1014 1013 1014 1013 1013 1013 1014 1015 1023 1032 1042 1053 1065 1082 1098 1108 1118 1129 1141 1155 1170 1187 1209 1233 1261 1289 1320 1351 1357 1347 1332 1319 1306 1294 1283 1270 1254 1239 1224 1209 1188 1164 1146 1132 1117 1105 1087 1080 1081 1065 1040 1018 1003 996 987 980 968 953 947 946 947 945 949 968 998 1042 1077 1104 1129 1159 1178 1191 1206 1226 1247 1267 1273 1273 1271 1267 1257 1243 1228 1213 1199 1184 1172 1159 1147 1133 1119 1107 1101 1093 1086 1081 1073 1068 1063 1059 1054 1044 1037 1041 1049 1055 1062 1073 1084 1096
 1223 1248 1274 1303 1336 1363 1389 1421 1457 1471 1444 1410 1388 1381 1375 1362 1321 1284 1253 1233 1229 1234 1236 1224 1202 1183 1167 1146 1123 1098 1079 1064 1053 1040 1028 1017 1017 1016 1016 1015 1015 1015 1016 1014 1015 1014 1015 1016 1025 1037 1050 1062 1069 1081 1098 1112 1123 1133 1141 1156 1173 1193 1220 1250 1282 1312 1338 1362 1363 1351 1339 1325 1312 1301 1288 1274 1257 1241 1226 1210 1190 1173 1158 1142 1126 1111 1098 1092 1085 1072 1052 1032 1016 1000 991 985 975 958 948 945 945 946 947 959 985 1029 1063 1087 1112 1137 1156 1173 1191 1210 1230 1248 1262 1269 1271 1271 1264 1256 1245 1232 1214 1198 1183 1169 1155 1138 1124 1113 1103 1094 1086 1077 1069 1064 1057 1055 1053 1048 1037 1035 1042 1048 1055 1065 1075 1085
 1201 1231 1263 1290 1320 1346 1363 1392 1429 1454 1423 1385 1350 1337 1336 1334 1309 1270 1233 1214 1205 1203 1205 1196 1177 1152 1134 1121 1106 1088 1067 1054 1043 1033 1022 1016 1016 1017 1017 1018 1018 1018 1017 1016 1017 1018 1019 1022 1031 1043 1061 1075 1082 1091 1104 1113 1123 1132 1143 1156 1171 1191 1218 1250 1288 1321 1348 1369 1368 1356 1344 1329 1313 1298 1283 1268 1250 1232 1214 1198 1188 1175 1162 1147 1138 1130 1116 1103 1084 1070 1054 1035 1016 1002 990 981 972 963 952 947 945 945 945 956 976 1013 1054 1076 1098 1121 1143 1164 1181 1195 1210 1224 1239 1256 1267 1270 1267 1263 1254 1240 1223 1208 1191 1174 1159 1146 1131 1117 1107 1100 1094 1084 1074 1066 1058 1051 1048 1045 1039 1030 1033 1038 1046 1058 1068 1077
 1181 1208 1236 1267 1298 1323 1345 1374 1412 1435 1408 1359 1317 1288 1282 1280 1267 1246 1213 1194 1187 1182 1179 1169 1154 1130 1106 1092 1087 1074 1059 1045 1031 1021 1018 1016 1016 1021 1022 1021 1019 1019 1018 1018 1018 1019 1022 1026 1039 1053 1065 1076 1083 1091 1101 1110 1120 1129 1143 1157 1173 1192 1212 1237 1270 1305 1338 1367 1375 1364 1350 1336 1322 1306 1289 1276 1259 1243 1228 1222 1219 1206 1186 1171 1162 1147 1123 1106 1087 1070 1055 1034 1013 1001 989 978 973 967 954 945 943 942 944 952 970 1001 1043 1071 1091 1112 1133 1153 1167 1179 1190 1203 1219 1238 1254 1266 1268 1267 1260 1249 1231 1214 1194 1176 1160 1144 1132 1123 1113 1103 1096 1086 1078 1069 1061 1055 1050 1042 1032 1026 1029 1037 1044 1054 1063 1073
 1155 1181 1207 1239 1275 1300 1330 1370 1399 1412 1386 1342 1295 1257 1232 1222 1213 1202 1186 1169 1167 1165 1156 1145 1131 1115 1093 1072 1061 1053 1041 1030 1022 1019 1018 1020 1019 1020 1022 1022 1021 1021 1020 1019 1020 1024 1028 1034 1049 1061 1066 1073 1080 1091 1107 1117 1123 1133 1143 1155 1170 1186 1206 1233 1266 1303 1337 1368 1382 1374 1362 1349 1331 1316 1303 1289 1276 1267 1261 1252 1239 1224 1209 1199 1182 1158 1133 1112 1096 1080 1063 1041 1020 1008 995 989 985 977 961 947 942 942 941 946 964 989 1024 1060 1081 1099 1118 1135 1150 1166 1177 1188 1199 1212 1231 1251 1267 1265 1260 1248 1222 1197 1174 1160 1152 1142 1129 1116 1103 1096 1089 1081 1073 1066 1061 1055 1049 1042 1034 1023 1027 1033 1041 1050 1059 1067
 1130 1154 1186 1217 1252 1282 1317 1350 1369 1378 1356 1313 1274 1240 1207 1177 1161 1152 1143 1136 1135 1132 1128 1123 1113 1099 1084 1066 1051 1038 1027 1020 1017 1017 1018 1019 1020 1022 1022 1022 1023 1023 1023 1021 1022 1026 1032 1036 1046 1052 1060 1071 1082 1097 1121 1132 1136 1146 1155 1165 1180 1197 1216 1249 1282 1315 1338 1367 1389 1384 1369 1355 1339 1327 1315 1305 1299 1292 1281 1267 1255 1245 1235 1216 1193 1170 1143 1125 1107 1088 1072 1050 1027 1016 1005 996 987 979 966 951 945 943 942 944 954 976 1009 1051 1073 1087 1103 1119 1134 1151 1163 1167 1174 1187 1201 1219 1232 1231 1225 1215 1199 1177 1148 1130 1123 1120 1112 1102 1089 1080 1074 1068 1063 1060 1057 1055 1051 1042 1031 1018 1022 1028 1037 1044 1052 1065
 1099 1126 1156 1192 1223 1254 1282 1308 1323 1330 1321 1283 1249 1222 1192 1156 1125 1110 1100 1093 1099 1103 1111 1109 1099 1088 1073 1058 1046 1035 1026 1019 1019 1019 1019 1020 1020 1022 1024 1024 1025 1024 1023 1022 1027 1030 1035 1040 1045 1054 1064 1075 1085 1100 1122 1142 1150 1161 1174 1183 1194 1212 1235 1270 1314 1350 1373 1393 1403 1393 1377 1362 1349 1336 1327 1321 1313 1305 1294 1284 1274 1260 1242 1223 1201 1175 1152 1134 1115 1096 1077 1059 1033 1018 1008 998 990 982 971 955 945 943 942 943 946 961 994 1036 1064 1078 1092 1106 1120 1139 1147 1149 1153 1157 1167 1178 1183 1185 1181 1175 1170 1161 1135 1107 1092 1085 1076 1071 1066 1059 1053 1055 1054 1049 1046 1047 1046 1041 1032 1016 1018 1023 1029 1035 1044 1058
 1063 1088 1119 1152 1182 1213 1233 1248 1258 1269 1256 1238 1218 1192 1163 1128 1096 1079 1069 1065 1073 1086 1096 1096 1089 1080 1063 1045 1037 1030 1027 1030 1037 1032 1026 1022 1021 1024 1028 1028 1026 1025 1024 1024 1029 1035 1039 1044 1053 1064 1077 1087 1097 1107 1119 1142 1158 1170 1183 1197 1213 1230 1250 1281 1321 1362 1394 1415 1414 1401 1384 1369 1355 1343 1331 1323 1317 1310 1298 1288 1274 1260 1240 1219 1197 1176 1156 1136 1121 1102 1081 1061 1037 1023 1010 998 990 981 973 958 946 941 940 940 941 949 977 1021 1054 1065 1075 1088 1104 1120 1134 1134 1129 1126 1127 1135 1140 1142 1143 1141 1140 1139 1132 1111 1082 1064 1052 1040 1037 1036 1031 1034 1043 1042 1039 1040 1035 1032 1024 1010 1010 1018 1021 1030 1041 1056
 1039 1056 1082 1110 1144 1171 1176 1183 1191 1197 1196 1187 1169 1145 1122 1092 1065 1054 1048 1049 1059 1072 1083 1083 1074 1063 1056 1042 1028 1025 1032 1043 1048 1042 1036 1030 1031 1036 1036 1031 1028 1027 1027 1027 1029 1039 1044 1051 1063 1075 1089 1103 1112 1122 1140 1161 1173 1182 1195 1210 1226 1246 1272 1306 1344 1380 1409 1425 1419 1404 1388 1372 1356 1342 1327 1316 1305 1293 1282 1270 1257 1243 1226 1210 1190 1172 1153 1136 1120 1104 1082 1065 1045 1031 1016 1004 993 983 974 962 950 944 940 939 940 945 967 1007 1038 1046 1054 1067 1084 1102 1115 1122 1114 1103 1096 1096 1103 1107 1111 1115 1117 1116 1111 1103 1089 1061 1044 1031 1018 1018 1019 1015 1028 1034 1031 1027 1023 1018 1011 999 1004 1010 1015 1024 1036 1052
 1038 1040 1049 1072 1106 1129 1127 1125 1124 1123 1127 1120 1108 1095 1078 1058 1042 1038 1037 1037 1043 1053 1064 1064 1052 1040 1038 1033 1026 1026 1035 1050 1054 1046 1039 1037 1041 1042 1041 1037 1034 1031 1030 1027 1030 1043 1052 1060 1070 1087 1103 1119 1129 1142 1164 1181 1186 1196 1205 1221 1239 1259 1286 1322 1362 1397 1417 1418 1409 1396 1379 1364 1350 1334 1318 1305 1288 1275 1264 1251 1239 1227 1212 1195 1178 1160 1142 1127 1115 1105 1091 1076 1058 1042 1027 1008 992 980 977 967 954 945 940 938 939 946 961 990 1020 1034 1038 1048 1065 1082 1093 1102 1100 1093 1082 1073 1072 1076 1084 1093 1099 1099 1094 1088 1081 1067 1045 1028 1005 991 993 1002 1019 1024 1020 1017 1014 1010 1008 996 991 998 1011 1023 1033 1044
 1037 1034 1036 1047 1066 1077 1073 1068 1069 1072 1074 1065 1058 1049 1043 1031 1031 1031 1030 1034 1034 1037 1041 1041 1038 1054 1072 1054 1039 1040 1056 1068 1066 1053 1046 1047 1050 1049 1046 1043 1044 1042 1032 1030 1038 1049 1059 1070 1079 1095 1114 1129 1144 1161 1185 1198 1201 1207 1220 1234 1251 1270 1297 1328 1369 1400 1411 1406 1396 1383 1370 1357 1342 1324 1310 1295 1280 1265 1250 1239 1230 1217 1202 1190 1171 1155 1139 1124 1106 1092 1081 1066 1054 1034 1019 1002 993 999 996 980 960 944 941 939 937 940 953 979 1010 1025 1027 1032 1045 1063 1074 1079 1078 1074 1068 1061 1055 1056 1064 1074 1082 1082 1076 1070 1062 1054 1046 1035 1016 984 975 986 1001 1008 1010 1009 1008 1008 1008 1001 984 987 1001 1016 1028 1037
 1037 1035 1034 1034 1036 1038 1038 1038 1038 1040 1044 1031 1031 1031 1031 1031 1031 1031 1031 1036 1038 1038 1037 1040 1059 1087 1097 1085 1074 1076 1084 1082 1075 1059 1055 1056 1053 1052 1051 1050 1052 1048 1036 1035 1042 1052 1064 1074 1087 1103 1123 1140 1157 1176 1200 1211 1216 1224 1233 1244 1259 1280 1306 1338 1377 1406 1413 1406 1397 1383 1370 1359 1346 1333 1320 1305 1289 1275 1258 1247 1243 1236 1225 1211 1195 1177 1158 1140 1121 1099 1086 1072 1058 1039 1026 1015 1012 1007 995 982 966 950 941 938 937 935 942 960 992 1022 1025 1024 1030 1044 1058 1062 1058 1053 1048 1044 1041 1043 1048 1053 1056 1057 1054 1049 1043 1039 1032 1022 1012 995 969 970 981 996 1005 1006 1003 1005 1006 1002 985 975 982 1000 1018 1028
 1041 1039 1037 1036 1035 1034 1033 1033 1033 1035 1031 1031 1031 1035 1031 1031 1031 1031 1040 1039 1045 1048 1047 1055 1075 1096 1104 1104 1102 1098 1096 1090 1077 1061 1060 1060 1056 1055 1054 1056 1055 1053 1042 1036 1044 1053 1066 1078 1092 1104 1121 1137 1153 1182 1211 1224 1232 1239 1248 1262 1277 1295 1321 1354 1387 1415 1422 1413 1405 1392 1380 1370 1357 1345 1335 1322 1307 1296 1290 1284 1276 1267 1256 1242 1221 1200 1179 1161 1144 1122 1110 1096 1080 1059 1045 1034 1020 1010 1000 986 972 957 946 938 936 936 937 944 973 1009 1022 1021 1022 1028 1038 1046 1044 1036 1030 1030 1029 1027 1029 1030 1029 1029 1029 1027 1023 1018 1011 1000 988 978 962 956 967 981 991 1000 1003 1005 1011 1010 1001 981 969 976 996 1014
 1051 1047 1045 1045 1042 1040 1038 1037 1035 1034 1034 1037 1036 1035 1035 1035 1034 1033 1036 1045 1056 1058 1060 1070 1089 1105 1114 1112 1106 1106 1105 1095 1080 1066 1066 1062 1060 1060 1059 1061 1059 1052 1039 1039 1047 1056 1069 1084 1102 1119 1130 1139 1154 1183 1218 1235 1246 1258 1270 1284 1300 1322 1349 1384 1418 1439 1440 1431 1418 1405 1393 1381 1369 1361 1355 1349 1341 1334 1322 1313 1304 1298 1286 1265 1243 1220 1195 1174 1152 1128 1113 1100 1086 1071 1059 1046 1037 1025 1012 1001 984 963 950 943 939 938 935 936 954 987 1008 1012 1014 1018 1024 1029 1031 1026 1019 1021 1021 1018 1015 1014 1013 1011 1009 1006 1002 993 981 968 961 955 950 949 954 963 972 983 991 1001 1008 1008 1006 997 971 962 977 1000
 1065 1063 1062 1060 1055 1050 1046 1042 1038 1036 1036 1035 1036 1038 1039 1041 1040 1042 1054 1066 1070 1068 1068 1081 1100 1120 1132 1121 1111 1107 1103 1096 1079 1071 1068 1064 1063 1063 1059 1059 1049 1038 1039 1048 1056 1066 1080 1093 1111 1132 1152 1164 1170 1188 1220 1242 1258 1271 1287 1307 1327 1351 1380 1415 1448 1463 1457 1446 1431 1416 1401 1393 1389 1382 1372 1364 1355 1344 1330 1318 1310 1302 1290 1273 1253 1230 1207 1182 1160 1141 1123 1111 1101 1088 1072 1059 1047 1035 1019 1004 987 965 953 948 944 940 935 933 942 968 996 1003 1006 1008 1016 1021 1021 1017 1012 1011 1010 1009 1006 1000 994 989 983 976 968 959 949 944 944 942 944 946 948 952 958 963 975 995 1005 1005 1004 999 975 958 968 990
 1088 1086 1082 1078 1071 1063 1059 1055 1051 1045 1039 1038 1042 1047 1051 1052 1056 1065 1080 1088 1084 1080 1082 1098 1120 1139 1145 1128 1113 1109 1105 1097 1081 1074 1069 1068 1066 1058 1048 1045 1041 1041 1046 1055 1065 1076 1093 1107 1123 1142 1156 1171 1186 1203 1229 1252 1270 1286 1301 1322 1346 1374 1405 1446 1477 1481 1472 1460 1443 1427 1418 1413 1403 1391 1375 1358 1342 1327 1309 1294 1279 1267 1257 1250 1240 1224 1206 1186 1167 1147 1131 1116 1105 1095 1081 1067 1054 1036 1016 995 979 970 962 950 944 941 936 934 935 955 985 995 997 998 1004 1011 1011 1007 1003 1003 1002 999 993 982 968 958 951 945 939 936 932 934 936 939 940 941 943 944 947 955 977 996 1002 1000 999 993 972 952 961 984
 1138 1119 1110 1101 1095 1091 1089 1084 1082 1073 1065 1062 1062 1068 1072 1073 1078 1091 1104 1104 1096 1094 1102 1123 1149 1162 1159 1140 1125 1118 1109 1096 1081 1077 1071 1064 1055 1047 1046 1045 1047 1051 1055 1063 1075 1092 1112 1129 1143 1155 1171 1187 1205 1230 1261 1278 1292 1303 1322 1344 1367 1395 1428 1467 1487 1488 1480 1468 1450 1433 1422 1411 1398 1385 1366 1347 1326 1306 1289 1273 1253 1234 1220 1209 1204 1194 1182 1168 1155 1141 1125 1110 1099 1089 1081 1069 1047 1021 1002 991 989 992 977 957 944 939 936 934 934 947 974 992 987 987 991 990 992 994 1000 995 980 969 959 947 942 937 933 928 927 928 930 932 931 934 936 937 938 938 945 957 981 995 990 981 977 974 963 947 952 973
 1189 1155 1145 1152 1159 1158 1148 1135 1128 1126 1123 1124 1124 1114 1102 1100 1107 1115 1118 1115 1112 1115 1124 1145 1165 1174 1166 1148 1131 1120 1112 1097 1082 1072 1062 1054 1047 1049 1059 1065 1065 1064 1065 1071 1088 1108 1127 1144 1155 1169 1183 1202 1227 1260 1290 1307 1320 1333 1347 1367 1389 1419 1452 1487 1493 1486 1478 1466 1450 1432 1417 1403 1385 1368 1350 1331 1312 1289 1270 1251 1231 1213 1194 1179 1167 1160 1151 1140 1130 1119 1106 1092 1081 1070 1058 1044 1029 1011 1005 1010 1013 1002 982 963 951 945 940 935 932 936 955 974 971 964 957 953 955 959 967 967 952 938 930 925 924 926 923 923 925 924 924 923 926 932 935 937 941 945 953 967 982 974 959 949 944 942 940 936 944 962
 1223 1187 1195 1239 1257 1240 1208 1189 1190 1193 1194 1201 1193 1165 1135 1133 1145 1149 1147 1142 1136 1136 1150 1167 1185 1187 1171 1151 1131 1113 1104 1093 1076 1063 1053 1049 1048 1057 1077 1089 1089 1079 1075 1081 1095 1108 1122 1138 1154 1169 1188 1209 1239 1276 1308 1326 1341 1356 1373 1390 1414 1442 1478 1500 1496 1485 1475 1460 1443 1426 1406 1388 1369 1350 1329 1304 1284 1264 1243 1229 1217 1207 1201 1190 1188 1180 1172 1159 1145 1134 1125 1115 1102 1083 1062 1046 1035 1030 1030 1031 1024 1002 982 967 956 948 942 938 935 933 938 946 944 937 933 930 929 931 934 936 931 928 925 923 922 923 922 921 921 921 922 923 925 935 954 966 968 967 967 966 959 942 931 927 928 928 928 931 934 944
